0.000000000000000000e+00 0.000000000000000000e+00 0.000000000000000000e+00 0.000000000000000000e+00
1.312556503587622636e+01 3.783041927075005617e+01 -1.577827137521929224e+01 5.084150510796604516e-01
2.388616695113031341e+01 5.595481836444557189e+01 -3.024724165032172962e+01 5.142702079715791852e-01
3.036119721706242203e+01 7.157405700126760451e+01 -4.193124896029519277e+01 5.193488569989086479e-01
3.135668428607498370e+01 8.388511159339206813e+01 -4.960280239340443131e+01 5.233823433114953572e-01
2.669252657305112209e+01 9.225847983593665447e+01 -5.246565151283760997e+01 5.261560569439649448e-01
1.722870798614938082e+01 9.622883229644540393e+01 -5.023594898359637284e+01 5.275108318614694092e-01
4.715043474130791168e+00 9.550496921974399811e+01 -4.314408787488166297e+01 5.273483409270307565e-01
-8.511698309550752128e+00 9.000452327685125908e+01 -3.188232210552078882e+01 5.256414437744816315e-01
-1.994087072864121879e+01 7.990611976895753799e+01 -1.753186967651378581e+01 5.224475019885933547e-01
-2.735115075227417236e+01 6.569995270119272845e+01 -1.486217656468633352e+00 5.179202180485071860e-01
-2.924833311600142594e+01 4.821092151819203053e+01 1.464253477962203043e+01 5.123142646826353008e-01
-2.519180855074806402e+01 2.857093988860244949e+01 2.916473621352099954e+01 5.059774609677344381e-01
-1.592678606457302060e+01 8.130955414954332383e+00 4.051582092983801431e+01 4.993279042637090437e-01
-3.267773379900927200e+00 -1.167480312472890169e+01 4.748909231060590486e+01 4.928179555508206411e-01
1.026263530990205730e+01 -2.947991076031498281e+01 4.942554118709558253e+01 4.868916987572288746e-01
2.196347131758032845e+01 -4.411386093822460452e+01 4.628798797809938748e+01 4.819449137544082329e-01
2.952466287811064305e+01 -5.468171227100000920e+01 3.859701005938274676e+01 4.782950163094377150e-01
3.149828498054841219e+01 -6.059325617125070806e+01 2.727271375575507051e+01 4.761637233327097318e-01
2.756933402191319260e+01 -6.155903356509759305e+01 1.346284443385327911e+01 4.756704414892402033e-01
1.858158969294267493e+01 -5.757558094172648566e+01 -1.577882473008226594e+00 4.768322573736756276e-01
6.332061166558720089e+00 -4.891367752356469367e+01 -1.654444868655548007e+01 4.795673530289862874e-01
-6.806912157502010174e+00 -3.610945672621775060e+01 -3.011309922805881456e+01 4.837010616288783260e-01
-1.835066986829973956e+01 -1.994822653072804286e+01 -4.100489443171904469e+01 4.889755732883911965e-01
-2.615650130992343492e+01 -1.429569704118135665e+00 -4.811249694535208477e+01 4.950644673045441757e-01
-2.879109608836490608e+01 1.829127326825142319e+01 -5.066931155063857517e+01 5.015921423337440510e-01
-2.576269362914766248e+01 3.798163755179660939e+01 -4.839704989295982784e+01 5.081569257372698933e-01
-1.759749061040110618e+01 5.641853640949265269e+01 -4.156388249713042882e+01 5.143559395748695806e-01
-5.756593278522727175e+00 7.247189369763908928e+01 -3.092470042516842099e+01 5.198096681669736041e-01
7.600249379401361693e+00 8.517323400268438149e+01 -1.757277633934673844e+01 5.241842568786351242e-01
1.998235822849120780e+01 9.376393366134793439e+01 -2.771106759991355695e+00 5.272098637334803328e-01
2.901922319850499932e+01 9.772350818344807521e+01 1.217267197544914126e+01 5.286942157002686438e-01
3.291872246127275048e+01 9.678464387110908262e+01 2.596726914860265367e+01 5.285318827653012752e-01
3.084091118653882546e+01 9.094479545795493891e+01 3.736636317951402475e+01 5.267108896544736574e-01
2.310207978396659456e+01 8.048131227298397050e+01 4.522252471217846193e+01 5.233180398186342286e-01
1.115089577052669689e+01 6.596798499226733270e+01 4.860602592682932510e+01 5.185423393700492323e-01
-2.697634484987645465e+00 4.827950925473055577e+01 4.697651142967428939e+01 5.126731613693508161e-01
-1.572836866919611332e+01 2.856373547338988672e+01 4.034329409134976885e+01 5.060883173592153339e-01
-2.539298126499665997e+01 8.166273995086573478e+00 2.933383681702218482e+01 4.992287781791984180e-01
-2.984212841899836377e+01 -1.149123814384966202e+01 1.512525462175462643e+01 4.925613350692559789e-01
-2.829357607525416185e+01 -2.905701435702369295e+01 -7.406577693342806246e-01 4.865356164359044833e-01
-2.115706230729185577e+01 -4.338426872954864422e+01 -1.658785734163513226e+01 4.815444234605603668e-01
-9.908007035550960850e+00 -5.362402821149200349e+01 -3.080916382820283062e+01 4.778948883616562227e-01
3.237507321407152361e+00 -5.926063326177764878e+01 -4.200976048145341935e+01 4.757937055552182715e-01
1.576329324186516345e+01 -6.009532623373857518e+01 -4.910398505952518633e+01 4.753451087221425841e-01
2.532136425976518623e+01 -5.619827472652313816e+01 -5.139471282169235167e+01 4.765572104666522257e-01
3.015018171940917924e+01 -4.785467754264213625e+01 -4.864779766147061224e+01 4.793513741886832880e-01
2.938077773798647030e+01 -3.552658511993342216e+01 -4.114466527755305947e+01 4.835702355069252945e-01
2.318703776281106599e+01 -1.984130505661498134e+01 -2.967942482849888464e+01 4.889823305810750975e-01
1.275671199191266858e+01 -1.603001607170154941e+00 -1.547553665179158422e+01 4.952843631135297464e-01
8.230374142321919551e-02 1.818986044217383835e+01 -2.663503810664944599e-02 5.021050514016093258e-01
-1.240188833726132600e+01 3.834749076896493136e+01 1.510091960706604297e+01 5.090160951234151687e-01
-2.228009586469702796e+01 5.753726656791172189e+01 2.845070253116062631e+01 5.155550117272157395e-01
-2.762878354085819055e+01 7.438888198685533837e+01 3.880477897749752003e+01 5.212610709650021823e-01
-2.740485484833592267e+01 8.764374673929351900e+01 4.525402329467389251e+01 5.257202987904688873e-01
-2.165957094143729122e+01 9.631332396526948969e+01 4.723725731570091568e+01 5.286107627429094125e-01
-1.152605942162125530e+01 9.980156972093318757e+01 4.457865724464914337e+01 5.297375332927961589e-01
1.018316499076254322e+00 9.795744059659168101e+01 3.752525902837116689e+01 5.290490948263152360e-01
1.355822857963152295e+01 9.104991437176514069e+01 2.675509036780780647e+01 5.266327469713675269e-01
2.372068261318633375e+01 7.968591971717933120e+01 1.332204297391533210e+01 5.226930532666950180e-01
2.962559523310662613e+01 6.470662726153328492e+01 -1.468001445050260978e+00 5.175215905482518641e-01
3.022042575335783710e+01 4.709446557336739403e+01 -1.621738662785798013e+01 5.114664649728589696e-01
2.544604046603186731e+01 2.790758093744512180e+01 -2.958352678984639184e+01 5.049069444872991141e-01
1.621808631705422954e+01 8.240753339429980784e+00 -4.037797472251048703e+01 4.982343356569586823e-01
4.240840532062448709e+00 -1.079983801257957943e+01 -4.761905155867418671e+01 4.918370751667383023e-01
-8.304773207162964965e+00 -2.812349120384173062e+01 -5.057043790035719155e+01 4.860869136653245826e-01
-1.914229097046749928e+01 -4.269490071470280412e+01 -4.880289027777646993e+01 4.813237857648572926e-01
-2.628928692502458375e+01 -5.359100437798646510e+01 -4.228949602866718749e+01 4.778385507694706824e-01
-2.840046720671647051e+01 -6.007085207819685735e+01 -3.150221530085869404e+01 4.758543647173210100e-01
-2.501792606245017581e+01 -6.164822254097602183e+01 -1.744783260212874154e+01 4.755086237048455344e-01
-1.668734957753486370e+01 -5.815250728214370923e+01 -1.589449533323695762e+00 4.768382434002401693e-01
-4.904106664712361230e+00 -4.976252253966634953e+01 1.435273336961548374e+01 4.797714504220892962e-01
8.128711105187205632e+00 -3.700231024810634750e+01 2.866671449778688441e+01 4.841287835853816945e-01
1.990863704622631403e+01 -2.069799121600016534e+01 3.989137855623152973e+01 4.896342345001608032e-01
2.813537131870177532e+01 -1.906451225053767740e+00 4.696580339804773274e+01 4.959349307385499395e-01
3.119342460460916300e+01 1.816682502770055763e+01 4.927287997042825651e+01 5.026259690531693636e-01
2.849854215069755980e+01 3.824651418152932791e+01 4.662230561770349624e+01 5.092771374451113831e-01
2.062201266707818803e+01 5.705871218908251308e+01 3.923421531128474271e+01 5.154599603622349591e-01
9.162537926325722282e+00 7.340003807063135355e+01 2.775135449751954297e+01 5.207750379223072823e-01
-3.601613519085870685e+00 8.621157240561413460e+01 1.325270825002477260e+01 5.248794948055621745e-01
-1.519295114900421773e+01 9.465735232261761212e+01 -2.791903500333914323e+00 5.275125677308425409e-01
-2.343078425241253981e+01 9.819651432808340985e+01 -1.867083957386187265e+01 5.285155748779735152e-01
-2.683308625400833236e+01 9.663220269685307073e+01 -3.267110197249920134e+01 5.278424850150053027e-01
-2.485397615090902690e+01 9.012353695751599503e+01 -4.334035796570857713e+01 5.255593442025864315e-01
-1.793721052154081264e+01 7.915725733523510144e+01 -4.968308412124049767e+01 5.218336023522940348e-01
-7.403690039111582522e+00 6.448715909256907253e+01 -5.123723324414896041e+01 5.169163180023573778e-01
4.792693523479007567e+00 4.705697973267312051e+01 -4.803803812505896076e+01 5.111207633392272909e-01
1.640215962019095031e+01 2.792410628134939543e+01 -4.052249130901869734e+01 5.048005615301823790e-01
2.526485792677024378e+01 8.197647806360301104e+00 -2.943571258748812980e+01 4.983296802200118392e-01
2.969137378301522645e+01 -1.100368282562793354e+01 -1.577084996685801421e+01 4.920854325574470778e-01
2.877695157749716515e+01 -2.857861740599388511e+01 -7.316630896553377728e-01 4.864340439463750720e-01
2.259150826938352097e+01 -4.346884033175212636e+01 1.431981919282936744e+01 4.817167192258684505e-01
1.220179830629443885e+01 -5.469981046368265964e+01 2.796349730094364006e+01 4.782333803103741565e-01
-4.933855248526233250e-01 -6.144860724012431774e+01 3.887092515929671066e+01 4.762222040748458340e-01
-1.310059170733693534e+01 -6.313691968531455956e+01 4.596985914031105835e+01 4.758359027747481318e-01
-2.318843070440813392e+01 -5.952979649755569369e+01 4.857281214050022555e+01 4.771193059274784765e-01
-2.877477748000975666e+01 -5.080796768152923448e+01 4.643550204396468928e+01 4.799952503573076679e-01
-2.873724779202174417e+01 -3.758216125260084084e+01 3.974909710930127460e+01 4.842652400719110739e-01
-2.305010634699938521e+01 -2.083457454353832361e+01 2.909971221155300825e+01 4.896274488266234015e-01
-1.279084493645341070e+01 -1.798636272916289469e+00 1.542577331516723049e+01 4.957090262086445431e-01
8.230370489215650676e-02 1.818986044124492096e+01 -2.663496794366520051e-02 5.021050514015933386e-01
1.312556915170928740e+01 3.783041846569417999e+01 -1.577826886807003426e+01 5.084150509360629844e-01
2.388616692677627285e+01 5.595481836499386930e+01 -3.024724165002553278e+01 5.142702079715794072e-01
3.036119720488541063e+01 7.157405700100356682e+01 -4.193124896152190217e+01 5.193488569989090919e-01
3.135668431042902426e+01 8.388511159288006525e+01 -4.960280239395068236e+01 5.233823433114955792e-01
2.669252652434303741e+01 9.225847983518961826e+01 -5.246565151330190702e+01 5.261560569439649448e-01
1.722870796179532960e+01 9.622883229583642617e+01 -5.023594898407219489e+01 5.275108318614692982e-01
4.715043486307813225e+00 9.550496921919049953e+01 -4.314408787485508867e+01 5.273483409270305344e-01
-8.511698321727772409e+00 9.000452327666172891e+01 -3.188232210675025513e+01 5.256414437744815205e-01
-1.994087075299525935e+01 7.990611976915253933e+01 -1.753186967651931027e+01 5.224475019885931326e-01
-2.735115074009716096e+01 6.569995270081473393e+01 -1.486217657872775710e+00 5.179202180485068530e-01
-2.924833314035546650e+01 4.821092151821176941e+01 1.464253477932149217e+01 5.123142646826349678e-01
-2.519180855074806402e+01 2.857093988768515302e+01 2.916473621446374054e+01 5.059774609677337720e-01
-1.592678605239599676e+01 8.130955414380871105e+00 4.051582093337434998e+01 4.993279042637084886e-01
-3.267773416431989819e+00 -1.167480312472808990e+01 4.748909231269992404e+01 4.928179555508201970e-01
1.026263528554801319e+01 -2.947991076095126672e+01 4.942554118680418895e+01 4.868916987572285415e-01
2.196347128104926583e+01 -4.411386093735381309e+01 4.628798797738751603e+01 4.819449137544078998e-01
2.952466285375660604e+01 -5.468171227116051369e+01 3.859701005936766904e+01 4.782950163094373819e-01
3.149828500490245986e+01 -6.059325617118320650e+01 2.727271375598936132e+01 4.761637233327096763e-01
2.756933402191320326e+01 -6.155903356479908695e+01 1.346284443365124162e+01 4.756704414892402588e-01
1.858158969294268203e+01 -5.757558094183899300e+01 -1.577882474416445913e+00 4.768322573736757386e-01
6.332061154381697143e+00 -4.891367752314816642e+01 -1.654444868404085511e+01 4.795673530289863984e-01
-6.806912120970948443e+00 -3.610945672586198896e+01 -3.011309922759538793e+01 4.837010616288785481e-01
-1.835066981959165844e+01 -1.994822653069766716e+01 -4.100489443071086271e+01 4.889755732883913630e-01
-2.615650134645451175e+01 -1.429569704169231681e+00 -4.811249694387991127e+01 4.950644673045445643e-01
-2.879109608836490608e+01 1.829127326853943458e+01 -5.066931155190287228e+01 5.015921423337446061e-01
-2.576269361697064753e+01 3.798163755238513062e+01 -4.839704989319791650e+01 5.081569257372703374e-01
-1.759749058604706207e+01 5.641853640853612717e+01 -4.156388249620225395e+01 5.143559395748699137e-01
-5.756593229814643387e+00 7.247189369802261183e+01 -3.092470042699461530e+01 5.198096681669741592e-01
7.600249415932426089e+00 8.517323400250737109e+01 -1.757277633990002386e+01 5.241842568786355683e-01
1.998235820413717434e+01 9.376393366116496964e+01 -2.771106760390530166e+00 5.272098637334804438e-01
2.901922321068202137e+01 9.772350818308304099e+01 1.217267197514940946e+01 5.286942157002687548e-01
3.291872244909573197e+01 9.678464387119608148e+01 2.596726914845432788e+01 5.285318827653012752e-01
3.084091118653882191e+01 9.094479545810945353e+01 3.736636317951375474e+01 5.267108896544735464e-01
2.310207974743553194e+01 8.048131227320595826e+01 4.522252471300539867e+01 5.233180398186338955e-01
1.115089578270371540e+01 6.596798499187427467e+01 4.860602592722965909e+01 5.185423393700487882e-01
-2.697634460633604014e+00 4.827950925415552774e+01 4.697651143005204943e+01 5.126731613693502609e-01
-1.572836865701908771e+01 2.856373547376565725e+01 4.034329409119503396e+01 5.060883173592147788e-01
-2.539298128935070409e+01 8.166273995750414016e+00 2.933383681804991383e+01 4.992287781791979184e-01
-2.984212841899836377e+01 -1.149123814452994452e+01 1.512525462208179761e+01 4.925613350692554793e-01
-2.829357609960819886e+01 -2.905701435700192903e+01 -7.406577691543311248e-01 4.865356164359043167e-01
-2.115706224640674549e+01 -4.338426873023194474e+01 -1.658785734229020647e+01 4.815444234605596452e-01
-9.908007072082021693e+00 -5.362402821110573115e+01 -3.080916382445978385e+01 4.778948883616562227e-01
3.237507321407152361e+00 -5.926063326172963741e+01 -4.200976048163586540e+01 4.757937055552181049e-01
1.576329324186516523e+01 -6.009532623345806002e+01 -4.910398505709161299e+01 4.753451087221426397e-01
2.532136424758816773e+01 -5.619827472639415333e+01 -5.139471281869086994e+01 4.765572104666524478e-01
3.015018174376321625e+01 -4.785467754323791212e+01 -4.864779765916118492e+01 4.793513741886835655e-01
2.938077772580945179e+01 -3.552658511955613818e+01 -4.114466527890026271e+01 4.835702355069257941e-01
2.318703778716511010e+01 -1.984130505722275473e+01 -2.967942482659677950e+01 4.889823305810754861e-01
1.275671200408968531e+01 -1.603001607580860410e+00 -1.547553665299773940e+01 4.952843631135304681e-01
8.230374142321918163e-02 1.818986044110729239e+01 -2.663503609370052733e-02 5.021050514016097699e-01
-1.240188836161536656e+01 3.834749076890318520e+01 1.510091960720597903e+01 5.090160951234156128e-01
-2.228009582816596890e+01 5.753726656758694702e+01 2.845070253181878783e+01 5.155550117272164057e-01
-2.762878354085819055e+01 7.438888198681985386e+01 3.880477897744776072e+01 5.212610709650026264e-01
-2.740485487268995968e+01 8.764374673904450219e+01 4.525402329322723460e+01 5.257202987904692204e-01
-2.165957092926026917e+01 9.631332396580204147e+01 4.723725731613827605e+01 5.286107627429096345e-01
-1.152605940944423502e+01 9.980156972031068108e+01 4.457865724700711496e+01 5.297375332927961589e-01
1.018316499076254766e+00 9.795744059666968440e+01 3.752525902810603498e+01 5.290490948263151250e-01
1.355822857963152295e+01 9.104991437103107899e+01 2.675509036825637921e+01 5.266327469713671938e-01
2.372068268624845544e+01 7.968591971742834801e+01 1.332204297334992127e+01 5.226930532666944629e-01
2.962559519657556351e+01 6.470662726121679498e+01 -1.468001446207923166e+00 5.175215905482514200e-01
3.022042575335784420e+01 4.709446557271585476e+01 -1.621738662947243270e+01 5.114664649728584145e-01
2.544604045385484170e+01 2.790758093724111077e+01 -2.958352679002189944e+01 5.049069444872984480e-01
1.621808632923125515e+01 8.240753339506202479e+00 -4.037797472140730548e+01 4.982343356569582382e-01
4.240840519885428428e+00 -1.079983801257545473e+01 -4.761905155824732816e+01 4.918370751667380247e-01
-8.304773219339983470e+00 -2.812349120391523272e+01 -5.057043789940021128e+01 4.860869136653245270e-01
-1.914229098264451778e+01 -4.269490071480329618e+01 -4.880289027318225692e+01 4.813237857648569040e-01
-2.628928692502458375e+01 -5.359100437779672177e+01 -4.228949602866883595e+01 4.778385507694704604e-01
-2.840046719453943069e+01 -6.007085207711831032e+01 -3.150221530370787448e+01 4.758543647173208435e-01
-2.501792611115826048e+01 -6.164822254033850157e+01 -1.744783260133979752e+01 4.755086237048454234e-01
-1.668734960188890781e+01 -5.815250728232074096e+01 -1.589449533770560752e+00 4.768382434002406134e-01
-4.904106664712362118e+00 -4.976252253896704758e+01 1.435273337029796359e+01 4.797714504220896292e-01
8.128711117364227690e+00 -3.700231024777009026e+01 2.866671449920787040e+01 4.841287835853820831e-01
1.990863696098715252e+01 -2.069799121664581065e+01 3.989137855641622821e+01 4.896342345001614138e-01
2.813537131870177532e+01 -1.906451225034923258e+00 4.696580339655219660e+01 4.959349307385502725e-01
3.119342460460916300e+01 1.816682502788994213e+01 4.927287996910377643e+01 5.026259690531699187e-01
2.849854212634352280e+01 3.824651418180384610e+01 4.662230561921193583e+01 5.092771374451119382e-01
2.062201266707818803e+01 5.705871218935928368e+01 3.923421531038719934e+01 5.154599603622354032e-01
9.162537914148702001e+00 7.340003807097640731e+01 2.775135449561982881e+01 5.207750379223073933e-01
-3.601613543439910803e+00 8.621157240540712507e+01 1.325270825179452494e+01 5.248794948055623966e-01
-1.519295114900421595e+01 9.465735232243909536e+01 -2.791903501635270235e+00 5.275125677308427630e-01
-2.343078424023551776e+01 9.819651432837689242e+01 -1.867083957336417654e+01 5.285155748779735152e-01
-2.683308625400833236e+01 9.663220269629503889e+01 -3.267110197357389012e+01 5.278424850150050807e-01
-2.485397612655498989e+01 9.012353695803000164e+01 -4.334035796573873256e+01 5.255593442025863204e-01
-1.793721053371783825e+01 7.915725733554262433e+01 -4.968308412144575925e+01 5.218336023522935907e-01
-7.403690051288607243e+00 6.448715909324013751e+01 -5.123723324585628802e+01 5.169163180023570447e-01
4.792693511301987286e+00 4.705697973302037695e+01 -4.803803812546262719e+01 5.111207633392269578e-01
1.640215962019095031e+01 2.792410628103250048e+01 -4.052249130687635414e+01 5.048005615301819349e-01
2.526485790241619966e+01 8.197647806480400590e+00 -2.943571258656249512e+01 4.983296802200112285e-01
2.969137375866117878e+01 -1.100368282590581792e+01 -1.577084996585988819e+01 4.920854325574466892e-01
2.877695154096610608e+01 -2.857861740630965741e+01 -7.316630885523784933e-01 4.864340439463747390e-01
2.259150829373757219e+01 -4.346884033156387517e+01 1.431981919348337406e+01 4.817167192258681174e-01
1.220179831847145913e+01 -5.469981046378316591e+01 2.796349730099576902e+01 4.782333803103737679e-01
-4.933855370296442722e-01 -6.144860723970730731e+01 3.887092516014828192e+01 4.762222040748458896e-01
-1.310059173169097591e+01 -6.313691968533255050e+01 4.596985913988076788e+01 4.758359027747480763e-01
-2.318843068005409336e+01 -5.952979649799070927e+01 4.857281214004194680e+01 4.771193059274786430e-01
-2.877477746783273815e+01 -5.080796768079794390e+01 4.643550204286282224e+01 4.799952503573081675e-01
-2.873724780419876623e+01 -3.758216125326112689e+01 3.974909711005069113e+01 4.842652400719115180e-01
-2.305010634699938876e+01 -2.083457454294629940e+01 2.909971221469176683e+01 4.896274488266237346e-01
-1.279084496080745303e+01 -1.798636273601070368e+00 1.542577331511794192e+01 4.957090262086450427e-01
8.230370489215653451e-02 1.818986044189608009e+01 -2.663496800494163930e-02 5.021050514015937827e-01
