-3.240924601650596593e-03 4.009161848218543156e+00 -3.240924601650596593e-03 -3.240924601650596593e-01
-3.268183881826204531e-03 4.009238903328074421e+00 -3.268183881826204531e-03 -3.268183881826204340e-01
-3.282707262648478647e-03 4.009279934415905799e+00 -3.282707262648478647e-03 -3.282707262648478785e-01
-3.284441355490942595e-03 4.009284783879199843e+00 -3.284441355490942595e-03 -3.284441355490942405e-01
-3.273381709028937245e-03 4.009253442359546504e+00 -3.273381709028937245e-03 -3.273381709028937436e-01
-3.249574355921796675e-03 4.009186041330641714e+00 -3.249574355921796675e-03 -3.249574355921796553e-01
-3.213116018527517430e-03 4.009082853433465488e+00 -3.213116018527517430e-03 -3.213116018527517603e-01
-3.164152256176156613e-03 4.008944295077395026e+00 -3.164152256176156613e-03 -3.164152256176156475e-01
-3.102878530825630733e-03 4.008770919543259481e+00 -3.102878530825630733e-03 -3.102878530825630699e-01
-3.029538324379031037e-03 4.008563419461811606e+00 -3.029538324379031037e-03 -3.029538324379030811e-01
-2.944420945817162114e-03 4.008322627213707356e+00 -2.944420945817162114e-03 -2.944420945817162183e-01
-2.847865224463375609e-03 4.008049494487456066e+00 -2.847865224463375609e-03 -2.847865224463375644e-01
-2.740254807514239631e-03 4.007745103665637743e+00 -2.740254807514239631e-03 -2.740254807514239666e-01
-2.622014172452411061e-03 4.007410668604633130e+00 -2.622014172452411061e-03 -2.622014172452410974e-01
-2.493612297118490053e-03 4.007047514067727967e+00 -2.493612297118490053e-03 -2.493612297118490140e-01
-2.355556988573874640e-03 4.006657082143065374e+00 -2.355556988573874640e-03 -2.355556988573874744e-01
-2.208394170881339269e-03 4.006240921734502081e+00 -2.208394170881339269e-03 -2.208394170881339269e-01
-2.052706355513432557e-03 4.005800681674191566e+00 -2.052706355513432557e-03 -2.052706355513432557e-01
-1.889108771290960373e-03 4.005338108271277342e+00 -1.889108771290960373e-03 -1.889108771290960442e-01
-1.718248509808723143e-03 4.004855033758212279e+00 -1.718248509808723143e-03 -1.718248509808723012e-01
-1.540801061610978318e-03 4.004353372536807676e+00 -1.540801061610978318e-03 -1.540801061610978240e-01
-1.357467894181027838e-03 4.003835112058641066e+00 -1.357467894181027838e-03 -1.357467894181027812e-01
-1.168974049565008923e-03 4.003302304823333380e+00 -1.168974049565008923e-03 -1.168974049565008888e-01
-9.760647918989348928e-04 4.002757061447167253e+00 -9.760647918989348928e-04 -9.760647918989348581e-02
-7.795031392031979804e-04 4.002201540914016142e+00 -7.795031392031979804e-04 -7.795031392031979978e-02
-5.800666623469126265e-04 4.001637943150942789e+00 -5.800666623469126265e-04 -5.800666623469126482e-02
-3.785444038859972103e-04 4.001068499802366674e+00 -3.785444038859972103e-04 -3.785444038859971799e-02
-1.757339414859223920e-04 4.000495465444250165e+00 -1.757339414859223920e-04 -1.757339414859223833e-02
2.756197045513331261e-05 3.999921108986707718e+00 2.756197045513331261e-05 2.756197045513331112e-03
2.305384204992604058e-04 3.999347704322774977e+00 2.305384204992604058e-04 2.305384204992604047e-02
4.323915924677078295e-04 3.998777521677140179e+00 4.323915924677078295e-04 4.323915924677078360e-02
6.323219643569748423e-04 3.998212818478343866e+00 6.323219643569748423e-04 6.323219643569748250e-02
8.295374111366880451e-04 3.997655830468066718e+00 8.295374111366880451e-04 8.295374111366880798e-02
1.023256411158058503e-03 3.997108762959610040e+00 1.023256411158058503e-03 1.023256411158058460e-01
1.212711088417905807e-03 3.996573782019021692e+00 1.212711088417905807e-03 1.212711088417905841e-01
1.397150272511557155e-03 3.996053006017271425e+00 1.397150272511557155e-03 1.397150272511557267e-01
1.575842478451402887e-03 3.995548497212786376e+00 1.575842478451402887e-03 1.575842478451403017e-01
1.748078785832845325e-03 3.995062253628118398e+00 1.748078785832845325e-03 1.748078785832845317e-01
1.913175672163935654e-03 3.994596201182413431e+00 1.913175672163935654e-03 1.913175672163935637e-01
2.070477713361399286e-03 3.994152186063855137e+00 2.070477713361399286e-03 2.070477713361399408e-01
2.219360196237070513e-03 3.993731967473739264e+00 2.219360196237070513e-03 2.219360196237070426e-01
2.359231609259519833e-03 3.993337210668286730e+00 2.359231609259519833e-03 2.359231609259519746e-01
2.489535996241262848e-03 3.992969480397312587e+00 2.489535996241262848e-03 2.489535996241262761e-01
2.609755181930446030e-03 3.992630234733437256e+00 2.609755181930446030e-03 2.609755181930445977e-01
2.719410839620851807e-03 3.992320819315815505e+00 2.719410839620851807e-03 2.719410839620851617e-01
2.818066403974714071e-03 3.992042462049083085e+00 2.818066403974714071e-03 2.818066403974713863e-01
2.905328818601254914e-03 3.991796268256319280e+00 2.905328818601254914e-03 2.905328818601254914e-01
2.980850105427739621e-03 3.991583216321785255e+00 2.980850105427739621e-03 2.980850105427739760e-01
3.044328757890902171e-03 3.991404153832534440e+00 3.044328757890902171e-03 3.044328757890902293e-01
3.095509400328268559e-03 3.991259788492208749e+00 3.095509400328268559e-03 3.095509400328268490e-01
3.134188883340785058e-03 3.991150704601061250e+00 3.134188883340785058e-03 3.134188883340784937e-01
3.160212658204373734e-03 3.991077342371397663e+00 3.160212658204373734e-03 3.160212658204373803e-01
3.173473258430260270e-03 3.991039991898416073e+00 3.173473258430260270e-03 3.173473258430260513e-01
3.173916713484531589e-03 3.991038810651324820e+00 3.173916713484531589e-03 3.173916713484531416e-01
3.161538335453076536e-03 3.991073807983499755e+00 3.161538335453076536e-03 3.161538335453076276e-01
3.136384537252158867e-03 3.991144852444686197e+00 3.136384537252158867e-03 3.136384537252158711e-01
3.098552970101034303e-03 3.991251671473418305e+00 3.098552970101034303e-03 3.098552970101034476e-01
3.048190577392714037e-03 3.991393848835325553e+00 3.048190577392714037e-03 3.048190577392714262e-01
2.985494742155286874e-03 3.991570831427783794e+00 2.985494742155286874e-03 2.985494742155286874e-01
2.910711248179177583e-03 3.991781926901316613e+00 2.910711248179177583e-03 2.910711248179177479e-01
2.824132146375334627e-03 3.992026303102226503e+00 2.824132146375334627e-03 2.824132146375334385e-01
2.726099784584567511e-03 3.992303008768232964e+00 2.726099784584567511e-03 2.726099784584567476e-01
2.617000808491817300e-03 3.992610961983140694e+00 2.617000808491817300e-03 2.617000808491817265e-01
2.497263336525182287e-03 3.992948949152076210e+00 2.497263336525182287e-03 2.497263336525182287e-01
2.367359590118443997e-03 3.993315646005926034e+00 2.367359590118443997e-03 2.367359590118444101e-01
2.227801039614875356e-03 3.993709610822951728e+00 2.227801039614875356e-03 2.227801039614875356e-01
2.079137315958794717e-03 3.994129295130435242e+00 2.079137315958794717e-03 2.079137315958794752e-01
1.921954630529700741e-03 3.994573050579613760e+00 1.921954630529700741e-03 1.921954630529700836e-01
1.756872080435763553e-03 3.995039131243704134e+00 1.756872080435763553e-03 1.756872080435763483e-01
1.584540466581468724e-03 3.995525705395628790e+00 1.584540466581468724e-03 1.584540466581468854e-01
1.405638948217965804e-03 3.996030859018008474e+00 1.405638948217965804e-03 1.405638948217965700e-01
1.220872449607965675e-03 3.996552605087142496e+00 1.220872449607965675e-03 1.220872449607965649e-01
1.030969187770161034e-03 3.997088891487577733e+00 1.030969187770161034e-03 1.030969187770161000e-01
8.366772745395223811e-04 3.997637607918644864e+00 8.366772745395223811e-04 8.366772745395223421e-02
6.387621657874906905e-04 3.998196595720713731e+00 6.387621657874906905e-04 6.387621657874906211e-02
4.380034097158557664e-04 3.998763655182123067e+00 4.380034097158557664e-04 4.380034097158557599e-02
2.351915670059965624e-04 3.999336554863099469e+00 2.351915670059965624e-04 2.351915670059965754e-02
3.112521037245584909e-05 3.999913040312177426e+00 3.112521037245584909e-05 3.112521037245585126e-03
-1.733923920797970106e-04 4.000490842687498549e+00 -1.733923920797970106e-04 -1.733923920797970225e-02
-3.775563236192484525e-04 4.001067688119073651e+00 -3.775563236192484525e-04 -3.775563236192484851e-02
-5.805632451413288717e-04 4.001641306329791981e+00 -5.805632451413288717e-04 -5.805632451413288847e-02
-7.816145749188251404e-04 4.002209439800828328e+00 -7.816145749188251404e-04 -7.816145749188251057e-02
-9.799195835533491914e-04 4.002769852635608139e+00 -9.799195835533491914e-04 -9.799195835533491827e-02
-1.174698562918423091e-03 4.003320339319852650e+00 -1.174698562918423091e-03 -1.174698562918423117e-01
-1.365185855273279595e-03 4.003858733539820136e+00 -1.365185855273279595e-03 -1.365185855273279569e-01
-1.550632876930279616e-03 4.004382916628223654e+00 -1.550632876930279616e-03 -1.550632876930279624e-01
-1.730311066982668979e-03 4.004890825994244175e+00 -1.730311066982668979e-03 -1.730311066982669066e-01
-1.903514728142595945e-03 4.005380463244089917e+00 -1.903514728142595945e-03 -1.903514728142595980e-01
-2.069563812646079293e-03 4.005849902056829670e+00 -2.069563812646079293e-03 -2.069563812646079415e-01
-2.227806573663474506e-03 4.006297295818790793e+00 -2.227806573663474506e-03 -2.227806573663474454e-01
-2.377622119354775004e-03 4.006720884883056222e+00 -2.377622119354775004e-03 -2.377622119354775021e-01
-2.518422842897117750e-03 4.007119003538032409e+00 -2.518422842897117750e-03 -2.518422842897117819e-01
-2.649656711595634647e-03 4.007490086574064136e+00 -2.649656711595634647e-03 -2.649656711595634873e-01
-2.770809426920099044e-03 4.007832675462488226e+00 -2.770809426920099044e-03 -2.770809426920098906e-01
-2.881406427085600810e-03 4.008145424120251654e+00 -2.881406427085600810e-03 -2.881406427085601019e-01
-2.981014737581323421e-03 4.008427104216782944e+00 -2.981014737581323421e-03 -2.981014737581323404e-01
-3.069244659663923364e-03 4.008676610029720422e+00 -3.069244659663923364e-03 -3.069244659663923347e-01
-3.145751286269156833e-03 4.008892962807157012e+00 -3.145751286269156833e-03 -3.145751286269156677e-01
-3.210235847063326684e-03 4.009075314632402076e+00 -3.210235847063326684e-03 -3.210235847063326875e-01
-3.262445209390784327e-03 4.009222957550341526e+00 -3.262445209390784327e-03 -3.262445209390784084e-01
-3.302178187893295772e-03 4.009335306992766412e+00 -3.302178187893295772e-03 -3.302178187893295980e-01
-3.329281641374314243e-03 4.009411922530056849e+00 -3.329281641374314243e-03 -3.329281641374314260e-01
-3.343649454358275583e-03 4.009452513974436805e+00 -3.343649454358275583e-03 -3.343649454358275652e-01
-3.345228238061283797e-03 4.009456923725378097e+00 -3.345228238061283797e-03 -3.345228238061283554e-01
-3.334013539521185794e-03 4.009425142426661814e+00 -3.334013539521185794e-03 -3.334013539521185621e-01
-3.310051388958764555e-03 4.009357301554283382e+00 -3.310051388958764555e-03 -3.310051388958764607e-01
-3.273438505331608198e-03 4.009253673751636882e+00 -3.273438505331608198e-03 -3.273438505331608406e-01
-3.224320443509922501e-03 4.009114675430438091e+00 -3.224320443509922501e-03 -3.224320443509922640e-01
-3.162892660181382699e-03 4.008940859874069673e+00 -3.162892660181382699e-03 -3.162892660181382820e-01
-3.089398630931109585e-03 4.008732919715770393e+00 -3.089398630931109585e-03 -3.089398630931109446e-01
-3.004127657703309449e-03 4.008491687338655574e+00 -3.004127657703309449e-03 -3.004127657703309362e-01
-2.907418560976060898e-03 4.008218114434112245e+00 -2.907418560976060898e-03 -2.907418560976061106e-01
-2.799654979509798303e-03 4.007913283387669168e+00 -2.799654979509798303e-03 -2.799654979509798025e-01
-2.681261380487928378e-03 4.007578408058367181e+00 -2.681261380487928378e-03 -2.681261380487928170e-01
-2.552706731641910323e-03 4.007214813212585547e+00 -2.552706731641910323e-03 -2.552706731641910531e-01
-2.414498828472655227e-03 4.006823940941567130e+00 -2.414498828472655227e-03 -2.414498828472655123e-01
-2.267183582994445560e-03 4.006407340152292385e+00 -2.267183582994445560e-03 -2.267183582994445612e-01
-2.111343494014962952e-03 4.005966659680308517e+00 -2.111343494014962952e-03 -2.111343494014963074e-01
-1.947593776878851031e-03 4.005503645838046189e+00 -1.947593776878851031e-03 -1.947593776878850935e-01
-1.776581509441290969e-03 4.005020130861518979e+00 -1.776581509441290969e-03 -1.776581509441290951e-01
-1.598982167907644913e-03 4.004518029156078462e+00 -1.598982167907644913e-03 -1.598982167907644913e-01
-1.415497205205956980e-03 4.003999328177028083e+00 -1.415497205205956980e-03 -1.415497205205956954e-01
-1.226851648450672004e-03 4.003466080427724449e+00 -1.226851648450672004e-03 -1.226851648450671961e-01
-1.033790746782513358e-03 4.002920396528193869e+00 -1.033790746782513358e-03 -1.033790746782513315e-01
-8.370775029772015369e-04 4.002364435466549963e+00 -8.370775029772015369e-04 -8.370775029772015152e-02
-6.374894726826775939e-04 4.001800397173714607e+00 -6.374894726826775939e-04 -6.374894726826775548e-02
-4.358156831228966158e-04 4.001230513298370539e+00 -4.358156831228966158e-04 -4.358156831228966049e-02
-2.328536966995269151e-04 4.000657038420732725e+00 -2.328536966995269151e-04 -2.328536966995269075e-02
-2.940625261264501774e-05 4.000082241455161558e+00 -2.940625261264501774e-05 -2.940625261264501883e-03
1.737217527949495583e-04 3.999508396299167767e+00 1.737217527949495583e-04 1.737217527949495507e-02
3.757265181857262081e-04 3.998937773181792554e+00 3.757265181857262081e-04 3.757265181857261799e-02
5.758085362108840985e-04 3.998372629536204315e+00 5.758085362108840985e-04 5.758085362108841115e-02
7.731756961166469334e-04 3.997815201108525951e+00 7.731756961166469334e-04 7.731756961166469377e-02
9.670464901915831225e-04 3.997267693216637774e+00 9.670464901915831225e-04 9.670464901915831746e-02
1.156653055900254152e-03 3.996732271931138225e+00 1.156653055900254152e-03 1.156653055900254135e-01
1.341244235800284580e-03 3.996211055627501452e+00 1.341244235800284580e-03 1.341244235800284623e-01
1.520088557350548477e-03 3.995706106568623461e+00 1.520088557350548477e-03 1.520088557350548486e-01
1.692477111868312097e-03 3.995219422781525864e+00 1.692477111868312097e-03 1.692477111868312123e-01
1.857726388059610136e-03 3.994752930189898521e+00 1.857726388059610136e-03 1.857726388059610101e-01
2.015180972229263772e-03 3.994308474986037361e+00 2.015180972229263772e-03 2.015180972229263789e-01
2.164216160931619649e-03 3.993887816375612410e+00 2.164216160931619649e-03 2.164216160931619615e-01
2.304240451565086906e-03 3.993492619618915107e+00 2.304240451565086906e-03 2.304240451565086889e-01
2.434697896084508668e-03 3.993124449469726667e+00 2.434697896084508668e-03 2.434697896084508650e-01
2.555070326582737413e-03 3.992784764004605247e+00 2.555070326582737413e-03 2.555070326582737361e-01
2.664879422816741027e-03 3.992474908866319172e+00 2.664879422816741027e-03 2.664879422816741061e-01
2.763688625081348917e-03 3.992196111963119076e+00 2.763688625081348917e-03 2.763688625081349159e-01
2.851104881709081752e-03 3.991949478621371394e+00 2.851104881709081752e-03 2.851104881709081718e-01
2.926780218439840354e-03 3.991735987228553384e+00 2.926780218439840354e-03 2.926780218439840597e-01
2.990413131638372437e-03 3.991556485374708974e+00 2.990413131638372437e-03 2.990413131638372524e-01
3.041748247937146876e-03 3.991411680766297376e+00 3.041748247937146876e-03 3.041748247937147154e-01
3.080582418860027937e-03 3.991302157706061227e+00 3.080582418860027937e-03 3.080582418860027816e-01
3.106761096118413560e-03 3.991228356408514699e+00 3.106761096118413560e-03 3.106761096118413334e-01
3.120176811808376711e-03 3.991190566971092313e+00 3.120176811808376711e-03 3.120176811808376693e-01
3.120775593684251177e-03 3.991188946864765885e+00 3.120775593684251177e-03 3.120775593684251281e-01
3.108552750796680572e-03 3.991223505444584152e+00 3.108552750796680572e-03 3.108552750796680364e-01
3.083554692403434570e-03 3.991294111261729949e+00 3.083554692403434570e-03 3.083554692403434605e-01
3.045879065267828503e-03 3.991400491755894286e+00 3.045879065267828503e-03 3.045879065267828589e-01
2.995672807430503105e-03 3.991542230693789772e+00 2.995672807430503105e-03 2.995672807430503348e-01
2.933133295926766259e-03 3.991718774973534778e+00 2.933133295926766259e-03 2.933133295926766415e-01
2.858506307655626043e-03 3.991929432246325238e+00 2.858506307655626043e-03 2.858506307655626077e-01
2.772083886028617501e-03 3.992173370358981455e+00 2.772083886028617501e-03 2.772083886028617328e-01
2.674208369814285498e-03 3.992449638049359262e+00 2.674208369814285498e-03 2.674208369814285446e-01
2.565266396138312331e-03 3.992757153401199410e+00 2.565266396138312331e-03 2.565266396138312088e-01
2.445686073143168472e-03 3.993094702819857567e+00 2.445686073143168472e-03 2.445686073143168437e-01
2.315939612272036822e-03 3.993460962035895179e+00 2.315939612272036822e-03 2.315939612272036874e-01
2.176538472588270597e-03 3.993854489327363755e+00 2.176538472588270597e-03 2.176538472588270545e-01
2.028032273334329054e-03 3.994273736221196636e+00 2.028032273334329054e-03 2.028032273334328950e-01
1.871007213676444863e-03 3.994717054368036813e+00 1.871007213676444863e-03 1.871007213676444958e-01
1.706082377806354819e-03 3.995182697840689023e+00 1.706082377806354819e-03 1.706082377806354688e-01
1.533908553477139614e-03 3.995668834911342504e+00 1.533908553477139614e-03 1.533908553477139614e-01
1.355164886284063131e-03 3.996173551562098414e+00 1.355164886284063131e-03 1.355164886284063175e-01
1.170556286690238286e-03 3.996694860768519764e+00 1.170556286690238286e-03 1.170556286690238312e-01
9.808109575733016134e-04 3.997230710414403809e+00 9.808109575733016134e-04 9.808109575733016394e-02
7.866769965709363840e-04 3.997778990198705529e+00 7.866769965709363840e-04 7.866769965709363710e-02
5.889198451635878004e-04 3.998337541460979860e+00 5.889198451635878004e-04 5.889198451635878351e-02
3.883190371790878588e-04 3.998904164489144097e+00 3.883190371790878588e-04 3.883190371790878892e-02
1.856651188492576706e-04 3.999476627842911025e+00 1.856651188492576706e-04 1.856651188492576543e-02
-1.824335151547409206e-05 4.000052677070329743e+00 -1.824335151547409206e-05 -1.824335151547409233e-03
-2.226031201424770044e-04 4.000630043329255869e+00 -2.226031201424770044e-04 -2.226031201424770109e-02
-4.266092845652738998e-04 4.001206452749335618e+00 -4.266092845652738998e-04 -4.266092845652739302e-02
-6.294585197338209252e-04 4.001779635053399176e+00 -6.294585197338209252e-04 -6.294585197338209426e-02
-8.303522578085798444e-04 4.002347332722446360e+00 -8.303522578085798444e-04 -8.303522578085797967e-02
-1.028499782968908451e-03 4.002907309859948803e+00 -1.028499782968908451e-03 -1.028499782968908399e-01
-1.223121400359190002e-03 4.003457360951744981e+00 -1.223121400359190002e-03 -1.223121400359190036e-01
-1.413451465115380702e-03 4.003995319684290344e+00 -1.413451465115380702e-03 -1.413451465115380667e-01
-1.598741405949779745e-03 4.004519067390596376e+00 -1.598741405949779745e-03 -1.598741405949779815e-01
-1.778262673964746497e-03 4.005026541480296132e+00 -1.778262673964746497e-03 -1.778262673964746410e-01
-1.951309583221913285e-03 4.005515743560285280e+00 -1.951309583221913285e-03 -1.951309583221913224e-01
-2.117202096829831799e-03 4.005984747310103344e+00 -2.117202096829831799e-03 -2.117202096829831903e-01
-2.275288478145859588e-03 4.006431706116979186e+00 -2.275288478145859588e-03 -2.275288478145859605e-01
-2.424947844909400470e-03 4.006854860334821744e+00 -2.424947844909400470e-03 -2.424947844909400574e-01
-2.565592599195816882e-03 4.007252544252975390e+00 -2.565592599195816882e-03 -2.565592599195816725e-01
-2.696670716490933827e-03 4.007623192662923550e+00 -2.696670716490933827e-03 -2.696670716490933706e-01
-2.817667905748518983e-03 4.007965347037073300e+00 -2.817667905748518983e-03 -2.817667905748518775e-01
-2.928109611887147207e-03 4.008277661293655925e+00 -2.928109611887147207e-03 -2.928109611887147468e-01
-3.027562866367352126e-03 4.008558907103404678e+00 -3.027562866367352126e-03 -3.027562866367352057e-01
-3.115637975585811882e-03 4.008807978745387857e+00 -3.115637975585811882e-03 -3.115637975585812125e-01
-3.191990036867516436e-03 4.009023897469115028e+00 -3.191990036867516436e-03 -3.191990036867516367e-01
-3.256320283408995538e-03 4.009205815359455194e+00 -3.256320283408995538e-03 -3.256320283408995486e-01
-3.308375585576770785e-03 4.009353024462788184e+00 -3.308375585576770785e-03 -3.308375585576771027e-01
-3.347954759796669798e-03 4.009464940212599693e+00 -3.347954759796669798e-03 -3.347954759796669677e-01
-3.374904666276703699e-03 4.009541122181095041e+00 -3.374904666276703699e-03 -3.374904666276703491e-01
-3.389119189198585951e-03 4.009581280182134222e+00 -3.389119189198585951e-03 -3.389119189198586124e-01
-3.390544939244278817e-03 4.009585256617165250e+00 -3.390544939244278817e-03 -3.390544939244278799e-01
-3.379177461713513912e-03 4.009553042131798861e+00 -3.379177461713513912e-03 -3.379177461713513964e-01
-3.355062784537306015e-03 4.009484768203969374e+00 -3.355062784537306015e-03 -3.355062784537305998e-01
-3.318297623705718583e-03 4.009380707479092365e+00 -3.318297623705718583e-03 -3.318297623705718791e-01
-3.269027530309260784e-03 4.009241276370819840e+00 -3.269027530309260784e-03 -3.269027530309260854e-01
-3.207447956718677360e-03 4.009067028164666091e+00 -3.207447956718677360e-03 -3.207447956718677551e-01
-3.133802373414598056e-03 4.008858655495914469e+00 -3.133802373414598056e-03 -3.133802373414598108e-01
-3.048380076749910086e-03 4.008616990749689357e+00 -3.048380076749910086e-03 -3.048380076749910295e-01
-2.951519880083203901e-03 4.008342985619759880e+00 -2.951519880083203901e-03 -2.951519880083203762e-01
-2.843605415706439675e-03 4.008037722494085742e+00 -2.843605415706439675e-03 -2.843605415706439432e-01
-2.725061142731169742e-03 4.007702415233839410e+00 -2.725061142731169742e-03 -2.725061142731169950e-01
-2.596356021214537690e-03 4.007338388607925239e+00 -2.596356021214537690e-03 -2.596356021214537568e-01
-2.457997837790122826e-03 4.006947084710053453e+00 -2.457997837790122826e-03 -2.457997837790122930e-01
-2.310532495273306865e-03 4.006530052449726043e+00 -2.310532495273306865e-03 -2.310532495273306952e-01
-2.154542482874137119e-03 4.006088940665214260e+00 -2.154542482874137119e-03 -2.154542482874137188e-01
-1.990643005695969577e-03 4.005625495671552017e+00 -1.990643005695969577e-03 -1.990643005695969525e-01
-1.819481131228195591e-03 4.005141549707616377e+00 -1.819481131228195591e-03 -1.819481131228195547e-01
-1.641732324883605609e-03 4.004639017181542471e+00 -1.641732324883605609e-03 -1.641732324883605487e-01
-1.458098028656178678e-03 4.004119885551554958e+00 -1.458098028656178678e-03 -1.458098028656178713e-01
-1.269303258587537505e-03 4.003586207324025814e+00 -1.269303258587537505e-03 -1.269303258587537453e-01
-1.076093252593406666e-03 4.003040093121945198e+00 -1.076093252593406666e-03 -1.076093252593406657e-01
-8.792310022596170390e-04 4.002483701936544236e+00 -8.792310022596170390e-04 -8.792310022596169783e-02
-6.794940519885353265e-04 4.001919233701986656e+00 -6.794940519885353265e-04 -6.794940519885353525e-02
-4.776714177961389812e-04 4.001348920070122439e+00 -4.776714177961389812e-04 -4.776714177961390029e-02
-2.745606509522805503e-04 4.000775015624495445e+00 -2.745606509522805503e-04 -2.745606509522805633e-02
-7.096447959752283537e-05 4.000199789282804730e+00 -7.096447959752283537e-05 -7.096447959752283374e-03
1.323122108327461619e-04 3.999625514945905458e+00 1.323122108327461619e-04 1.323122108327461598e-02
3.344656297348575121e-04 3.999054462846292957e+00 3.344656297348575121e-04 3.344656297348574947e-02
5.346962802756045690e-04 3.998488890420589748e+00 5.346962802756045690e-04 5.346962802756045907e-02
7.322120619382918322e-04 3.997931033418387514e+00 7.322120619382918322e-04 7.322120619382918583e-02
9.262314769423953160e-04 3.997383097161034904e+00 9.262314769423953160e-04 9.262314769423952987e-02
1.115986672316867778e-03 3.996847247722606689e+00 1.115986672316867778e-03 1.115986672316867795e-01
1.300726499775002728e-03 3.996325603482016042e+00 1.300726499775002728e-03 1.300726499775002598e-01
1.479719495506079960e-03 3.995820226705549150e+00 1.479719495506079960e-03 1.479719495506079951e-01
1.652256759003443379e-03 3.995333115423624459e+00 1.652256759003443379e-03 1.652256759003443431e-01
1.817654786723781534e-03 3.994866195563357092e+00 1.817654786723781534e-03 1.817654786723781613e-01
1.975258172106183173e-03 3.994421313320180911e+00 1.975258172106183173e-03 1.975258172106183208e-01
2.124442218325218838e-03 3.994000227903057532e+00 2.124442218325218838e-03 2.124442218325218734e-01
2.264615428790157665e-03 3.993604604575355932e+00 2.264615428790157665e-03 2.264615428790157647e-01
2.395221860865113465e-03 3.993236008093858480e+00 2.395221860865113465e-03 2.395221860865113517e-01
2.515743351450147169e-03 3.992895896538086298e+00 2.515743351450147169e-03 2.515743351450147047e-01
2.625701584456606626e-03 3.992585615553546408e+00 2.625701584456606626e-03 2.625701584456606730e-01
2.724660003705439010e-03 3.992306393051210378e+00 2.724660003705439010e-03 2.724660003705439149e-01
2.812225560388675362e-03 3.992059334359943090e+00 2.812225560388675362e-03 2.812225560388675327e-01
2.888050282445251294e-03 3.991845417869635426e+00 2.888050282445251294e-03 2.888050282445251415e-01
2.951832667764385607e-03 3.991665491172596614e+00 2.951832667764385607e-03 2.951832667764385798e-01
3.003317344137402742e-03 3.991520261977483219e+00 3.003317344137402742e-03 3.003317344137402811e-01
3.042301163116423440e-03 3.991410314588880404e+00 3.042301163116423440e-03 3.042301163116423179e-01
3.068629576243037463e-03 3.991336089222996097e+00 3.068629576243037463e-03 3.068629576243037671e-01
3.082195113876805802e-03 3.991297875979016752e+00 3.082195113876805802e-03 3.082195113876805559e-01
3.082943801977987373e-03 3.991295832329244675e+00 3.082943801977987373e-03 3.082943801977987563e-01
3.070870946769050595e-03 3.991329967630069753e+00 3.070870946769050595e-03 3.070870946769050369e-01
3.046022954279704095e-03 3.991400150433799254e+00 3.046022954279704095e-03 3.046022954279704043e-01
3.008497467515759780e-03 3.991506108181062995e+00 3.008497467515759780e-03 3.008497467515759971e-01
2.958441420111496394e-03 3.991647424639479524e+00 2.958441420111496394e-03 2.958441420111496134e-01
2.896052184299455125e-03 3.991823546707797377e+00 2.896052184299455125e-03 2.896052184299455212e-01
2.821575531539254229e-03 3.992033782037839984e+00 2.821575531539254229e-03 2.821575531539254333e-01
2.735303499403421521e-03 3.992277298476925917e+00 2.735303499403421521e-03 2.735303499403421434e-01
2.637578419539984582e-03 3.992553144763116180e+00 2.637578419539984582e-03 2.637578419539984842e-01
2.528786922680147445e-03 3.992860238980220355e+00 2.528786922680147445e-03 2.528786922680147375e-01
2.409357109085811556e-03 3.993197367533920517e+00 2.409357109085811556e-03 2.409357109085811521e-01
2.279761182844283057e-03 3.993563206154681300e+00 2.279761182844283057e-03 2.279761182844283196e-01
2.140510594589784942e-03 3.993956313120561763e+00 2.140510594589784942e-03 2.140510594589784821e-01
1.992154954896388410e-03 3.994375139958400212e+00 1.992154954896388410e-03 1.992154954896388497e-01
1.835280453951898972e-03 3.994818038318558528e+00 1.835280453951898972e-03 1.835280453951899093e-01
1.670506166417906786e-03 3.995283262273723768e+00 1.670506166417906786e-03 1.670506166417906890e-01
1.498482870446279274e-03 3.995768980095701028e+00 1.498482870446279274e-03 1.498482870446279369e-01
1.319889701674064209e-03 3.996273277766399179e+00 1.319889701674064209e-03 1.319889701674064331e-01
1.135431560555884159e-03 3.996794168261025071e+00 1.135431560555884159e-03 1.135431560555884151e-01
9.458366397830529539e-04 3.997329599463026462e+00 9.458366397830529539e-04 9.458366397830529626e-02
7.518530268090878538e-04 3.997877461071259741e+00 7.518530268090878538e-04 7.518530268090878321e-02
5.542461528620865876e-04 3.998435594424891715e+00 5.542461528620865876e-04 5.542461528620865746e-02
3.537955415840031859e-04 3.999001799811736646e+00 3.537955415840031859e-04 3.537955415840032120e-02
1.512917290110660717e-04 3.999573845791328353e+00 1.512917290110660717e-04 1.512917290110660749e-02
-5.246673664536002896e-05 4.000149477911579154e+00 -5.246673664536002896e-05 -5.246673664536002923e-03
-2.566766116328999875e-04 4.000726427330342005e+00 -2.566766116328999875e-04 -2.566766116328999744e-02
-4.605330034072295260e-04 4.001302420177214714e+00 -4.605330034072295260e-04 -4.605330034072295520e-02
-6.632325966577133983e-04 4.001875186175185561e+00 -6.632325966577133983e-04 -6.632325966577133636e-02
-8.639768331289927926e-04 4.002442467805339632e+00 -8.639768331289927926e-04 -8.639768331289927883e-02
-1.061975006330950679e-03 4.003002029171391918e+00 -1.061975006330950679e-03 -1.061975006330950627e-01
-1.256447430487742621e-03 4.003551664759470441e+00 -1.256447430487742621e-03 -1.256447430487742656e-01
-1.446628469479741474e-03 4.004089208256352173e+00 -1.446628469479741474e-03 -1.446628469479741552e-01
-1.631769560465967835e-03 4.004612540995529990e+00 -1.631769560465967835e-03 -1.631769560465967939e-01
-1.811142162557795744e-03 4.005119600387198275e+00 -1.811142162557795744e-03 -1.811142162557795865e-01
-1.984040597457054599e-03 4.005608388038782053e+00 -1.984040597457054599e-03 -1.984040597457054633e-01
-2.149784835442898525e-03 4.006076977630558034e+00 -2.149784835442898525e-03 -2.149784835442898612e-01
-2.307723146591613220e-03 4.006523522550486938e+00 -2.307723146591613220e-03 -2.307723146591613150e-01
-2.457234654882225252e-03 4.006946263153294829e+00 -2.457234654882225252e-03 -2.457234654882225200e-01
-2.597731768124764140e-03 4.007343533729249785e+00 -2.597731768124764140e-03 -2.597731768124764140e-01
-2.728662467041609134e-03 4.007713769070761600e+00 -2.728662467041609134e-03 -2.728662467041609307e-01
-2.849512465281554396e-03 4.008055510651282738e+00 -2.849512465281554396e-03 -2.849512465281554552e-01
-2.959807211944909602e-03 4.008367412390102302e+00 -2.959807211944909602e-03 -2.959807211944909811e-01
-3.059113742103943424e-03 4.008648245959119727e+00 -3.059113742103943424e-03 -3.059113742103943268e-01
-3.147042365231275847e-03 4.008896905638569486e+00 -3.147042365231275847e-03 -3.147042365231275673e-01
-3.223248181155304037e-03 4.009112412679191273e+00 -3.223248181155304037e-03 -3.223248181155303760e-01
-3.287432425006559314e-03 4.009293919167141063e+00 -3.287432425006559314e-03 -3.287432425006559522e-01
-3.339341968784884790e-03 4.009440717150019928e+00 -3.339341968784884790e-03 -3.339341968784884651e-01
-3.378775629588129988e-03 4.009552222062731097e+00 -3.378775629588129988e-03 -3.378775629588129936e-01
-3.405580268196524950e-03 4.009627993478963148e+00 -3.405580268196524950e-03 -3.405580268196524707e-01
-3.419649767902291099e-03 4.009667741213896797e+00 -3.419649767902291099e-03 -3.419649767902291360e-01
-3.420930738565545505e-03 4.009671307670576113e+00 -3.420930738565545505e-03 -3.420930738565545748e-01
-3.409418723727121198e-03 4.009638683496069334e+00 -3.409418723727121198e-03 -3.409418723727121181e-01
-3.385159749255978873e-03 4.009570000169867754e+00 -3.385159749255978873e-03 -3.385159749255978734e-01
-3.348250528656094693e-03 4.009465530338985673e+00 -3.348250528656094693e-03 -3.348250528656094849e-01
-3.298836609974132271e-03 4.009325690418600097e+00 -3.298836609974132271e-03 -3.298836609974132306e-01
-3.237113442248092544e-03 4.009151033695913746e+00 -3.237113442248092544e-03 -3.237113442248092388e-01
-3.163324492086819987e-03 4.008942252807791817e+00 -3.163324492086819987e-03 -3.163324492086819761e-01
-3.077759051702871809e-03 4.008700180140913893e+00 -3.077759051702871809e-03 -3.077759051702871895e-01
-2.980755929092297318e-03 4.008425767390916050e+00 -2.980755929092297318e-03 -2.980755929092297474e-01
-2.872698752003823713e-03 4.008120096947645372e+00 -2.872698752003823713e-03 -2.872698752003823852e-01
-2.754011973691645760e-03 4.007784382673889034e+00 -2.754011973691645760e-03 -2.754011973691645743e-01
-2.625164548907701553e-03 4.007419949340484955e+00 -2.625164548907701553e-03 -2.625164548907701345e-01
-2.486664258063959933e-03 4.007028239042969453e+00 -2.486664258063959933e-03 -2.486664258063960020e-01
-2.339056997563131006e-03 4.006610800692773644e+00 -2.339056997563131006e-03 -2.339056997563130902e-01
-2.182925250003711799e-03 4.006169283130206260e+00 -2.182925250003711799e-03 -2.182925250003711903e-01
-2.018884213404018284e-03 4.005705432672225008e+00 -2.018884213404018284e-03 -2.018884213404018302e-01
-1.847580948159905983e-03 4.005221081559866114e+00 -1.847580948159905983e-03 -1.847580948159905923e-01
-1.669690912333798936e-03 4.004718144203293306e+00 -1.669690912333798936e-03 -1.669690912333798849e-01
-1.485915540513778462e-03 4.004198608062905507e+00 -1.485915540513778462e-03 -1.485915540513778332e-01
-1.296979841316983281e-03 4.003664525647274708e+00 -1.296979841316983281e-03 -1.296979841316983351e-01
-1.103629045184123005e-03 4.003118007581542237e+00 -1.103629045184123005e-03 -1.103629045184122970e-01
-9.066261363036285433e-04 4.002561212859212958e+00 -9.066261363036285433e-04 -9.066261363036284826e-02
-7.067486517168081140e-04 4.001996341416772296e+00 -7.067486517168081140e-04 -7.067486517168081184e-02
-5.047856001453826080e-04 4.001425624908356404e+00 -5.047856001453826080e-04 -5.047856001453825819e-02
-3.015345256835128907e-04 4.000851317919875250e+00 -3.015345256835128907e-04 -3.015345256835129037e-02
-9.779814937090117427e-05 4.000275689371406429e+00 -9.779814937090117427e-05 -9.779814937090116830e-03
1.056186502978488721e-04 3.999701013166179209e+00 1.056186502978488721e-04 1.056186502978488650e-02
3.079120895134952241e-04 3.999129559539121193e+00 3.079120895134952241e-04 3.079120895134952393e-02
5.082826780535919893e-04 3.998563585929280517e+00 5.082826780535919893e-04 5.082826780535919936e-02
7.059383217886057741e-04 3.998005328088692245e+00 7.059383217886057741e-04 7.059383217886057438e-02
9.000975290898866879e-04 3.997456991341120869e+00 9.000975290898866879e-04 9.000975290898867442e-02
1.089992452850793887e-03 3.996920741763066776e+00 1.089992452850793887e-03 1.089992452850793853e-01
1.274871950343762139e-03 3.996398697735835448e+00 1.274871950343762139e-03 1.274871950343762217e-01
1.454004563000810962e-03 3.995892921528064523e+00 1.454004563000810962e-03 1.454004563000810824e-01
1.626681395157942005e-03 3.995405411172523458e+00 1.626681395157942005e-03 1.626681395157942023e-01
1.792218947791669953e-03 3.994938092598676604e+00 1.792218947791669953e-03 1.792218947791670014e-01
1.949961818425837573e-03 3.994492812004133420e+00 1.949961818425837573e-03 1.949961818425837712e-01
2.099285313954653287e-03 3.994071328600106607e+00 2.099285313954653287e-03 2.099285313954653287e-01
2.239597941081695499e-03 3.993675307652081230e+00 2.239597941081695499e-03 2.239597941081695465e-01
2.370343760048597426e-03 3.993306313918899342e+00 2.370343760048597426e-03 2.370343760048597426e-01
2.491004610224081990e-03 3.992965805482106667e+00 2.491004610224081990e-03 2.491004610224082094e-01
2.601102177546546143e-03 3.992655127989091390e+00 2.601102177546546143e-03 2.601102177546545935e-01
2.700199907448516852e-03 3.992375509352687590e+00 2.700199907448516852e-03 2.700199907448516679e-01
2.787904752288242454e-03 3.992128054903483658e+00 2.787904752288242454e-03 2.787904752288242194e-01
2.863868740740793672e-03 3.991913743033015383e+00 2.863868740740793672e-03 2.863868740740793672e-01
2.927790370984391637e-03 3.991733421335157850e+00 2.927790370984391637e-03 2.927790370984391655e-01
2.979414270954698456e-03 3.991587797520129932e+00 2.979414270954698456e-03 2.979414270954698352e-01
3.018537291480659010e-03 3.991477455893761572e+00 3.018537291480659010e-03 3.018537291480659079e-01
3.045004883426833450e-03 3.991402836673437093e+00 3.045004883426833450e-03 3.045004883426833397e-01
3.058709575215514277e-03 3.991364229959613041e+00 3.058709575215514277e-03 3.058709575215514120e-01
3.059597391021419942e-03 3.991361793225510546e+00 3.059597391021419942e-03 3.059597391021419699e-01
3.047663634525777342e-03 3.991395535828514696e+00 3.047663634525777342e-03 3.047663634525777376e-01
3.022954709031884426e-03 3.991465326321752993e+00 3.022954709031884426e-03 3.022954709031884235e-01
2.985568254534404047e-03 3.991570892146565797e+00 2.985568254534404047e-03 2.985568254534404220e-01
2.935651201237577876e-03 3.991711817071292856e+00 2.935651201237577876e-03 2.935651201237577945e-01
2.873400917778111234e-03 3.991887547995191188e+00 2.873400917778111234e-03 2.873400917778111130e-01
2.799063171622004874e-03 3.992097392570644665e+00 2.799063171622004874e-03 2.799063171622004909e-01
2.712929996155829040e-03 3.992340518645434155e+00 2.712929996155829040e-03 2.712929996155828971e-01
2.615343717834867077e-03 3.992615974957870240e+00 2.615343717834867077e-03 2.615343717834867077e-01
2.506690963094831970e-03 3.992922679591938806e+00 2.506690963094831970e-03 2.506690963094831970e-01
2.387399826678023463e-03 3.993259418953723383e+00 2.387399826678023463e-03 2.387399826678023584e-01
2.257942507834113932e-03 3.993624868773776537e+00 2.257942507834113932e-03 2.257942507834113932e-01
2.118830451533236948e-03 3.994017587330351837e+00 2.118830451533236948e-03 2.118830451533237069e-01
1.970613262595517778e-03 3.994436026150405716e+00 1.970613262595517778e-03 1.970613262595517778e-01
1.813877125333961723e-03 3.994878536884291176e+00 1.813877125333961723e-03 1.813877125333961671e-01
1.649241108130831404e-03 3.995343373604830273e+00 1.649241108130831404e-03 1.649241108130831412e-01
1.477355982932938459e-03 3.995828704583753943e+00 1.477355982932938459e-03 1.477355982932938572e-01
1.298900878949144988e-03 3.996332615803063426e+00 1.298900878949144988e-03 1.298900878949144910e-01
1.114580690242045159e-03 3.996853120237936263e+00 1.114580690242045159e-03 1.114580690242045202e-01
9.251236030771580084e-04 3.997388165771813107e+00 9.251236030771580084e-04 9.251236030771579910e-02
7.312776985346898474e-04 3.997935642103704890e+00 7.312776985346898474e-04 7.312776985346898517e-02
5.338084015030314334e-04 3.998493390572749995e+00 5.338084015030314334e-04 5.338084015030314378e-02
3.334952293969575430e-04 3.999059211466934549e+00 3.334952293969575430e-04 3.334952293969575127e-02
1.311287120705543715e-04 3.999630873345903836e+00 1.311287120705543715e-04 1.311287120705543693e-02
-7.249260831561962076e-05 4.000206121757725164e+00 -7.249260831561962076e-05 -7.249260831561962076e-03
-2.765654939726662574e-04 4.000782687860486853e+00 -2.765654939726662574e-04 -2.765654939726662487e-02
-4.802850582004608354e-04 4.001358297784003426e+00 -4.802850582004608354e-04 -4.802850582004608571e-02
-6.828479913822293372e-04 4.001930681251595345e+00 -6.828479913822293372e-04 -6.828479913822294023e-02
-8.834557408229937745e-04 4.002497580744648786e+00 -8.834557408229937745e-04 -8.834557408229937181e-02
-1.081317605385319174e-03 4.003056760367275757e+00 -1.081317605385319174e-03 -1.081317605385319208e-01
-1.275653904459990917e-03 4.003606014606024388e+00 -1.275653904459990917e-03 -1.275653904459990995e-01
-1.465699006850591703e-03 4.004143177148119292e+00 -1.465699006850591703e-03 -1.465699006850591790e-01
-1.650704354404688339e-03 4.004666129327592472e+00 -1.650704354404688339e-03 -1.650704354404688434e-01
-1.829941410623844682e-03 4.005172808555237829e+00 -1.829941410623844682e-03 -1.829941410623844578e-01
-2.002704501329741725e-03 4.005661216439047934e+00 -2.002704501329741725e-03 -2.002704501329741760e-01
-2.168313600598312674e-03 4.006129426660002935e+00 -2.168313600598312674e-03 -2.168313600598312796e-01
-2.326116981995543509e-03 4.006575592606754554e+00 -2.326116981995543509e-03 -2.326116981995543509e-01
-2.475493772672077847e-03 4.006997954634778480e+00 -2.475493772672077847e-03 -2.475493772672077708e-01
-2.615856383270738668e-03 4.007394847035157248e+00 -2.615856383270738668e-03 -2.615856383270738772e-01
-2.746652797028775912e-03 4.007764704601104455e+00 -2.746652797028775912e-03 -2.746652797028775739e-01
-2.867368729768644299e-03 4.008106068806956301e+00 -2.867368729768644299e-03 -2.867368729768644542e-01
-2.977529632439926410e-03 4.008417593572897175e+00 -2.977529632439926410e-03 -2.977529632439926410e-01
-3.076702541615719023e-03 4.008698050571767979e+00 -3.076702541615719023e-03 -3.076702541615718989e-01
-3.164497767949320077e-03 4.008946334084745544e+00 -3.164497767949320077e-03 -3.164497767949320250e-01
-3.240570412098223076e-03 4.009161465363565213e+00 -3.240570412098223076e-03 -3.240570412098223163e-01
-3.304621709689753353e-03 4.009342596495389266e+00 -3.304621709689753353e-03 -3.304621709689753439e-01
-3.356398533112275265e-03 4.009489019528770015e+00 -3.356398533112275265e-03 -3.356398533112275318e-01
-3.395699699183138756e-03 4.009600149899726240e+00 -3.395699699183138756e-03 -3.395699699183138964e-01
-3.422372068518972528e-03 4.009675547183081612e+00 -3.422372068518972528e-03 -3.422372068518972354e-01
-3.436309523099519668e-03 4.009714921195010717e+00 -3.436309523099519668e-03 -3.436309523099519425e-01
-3.437458671753701282e-03 4.009718114339775319e+00 -3.437458671753701282e-03 -3.437458671753701456e-01
-3.425815056321255842e-03 4.009685117265529009e+00 -3.425815056321255842e-03 -3.425815056321255825e-01
-3.401424700886138738e-03 4.009616061452920377e+00 -3.401424700886138738e-03 -3.401424700886138686e-01
-3.364384316978260691e-03 4.009511219550155658e+00 -3.364384316978260691e-03 -3.364384316978260570e-01
-3.314839450343996449e-03 4.009371007973524748e+00 -3.314839450343996449e-03 -3.314839450343996519e-01
-3.252985547655078309e-03 4.009195980011464933e+00 -3.252985547655078309e-03 -3.252985547655078413e-01
-3.179066072853889945e-03 4.008986828301981831e+00 -3.179066072853889945e-03 -3.179066072853889979e-01
-3.093370315408883707e-03 4.008744385232855478e+00 -3.093370315408883707e-03 -3.093370315408883742e-01
-2.996237079655479380e-03 4.008469602501080864e+00 -2.996237079655479380e-03 -2.996237079655479363e-01
-2.888049990614409684e-03 4.008163562497867538e+00 -2.888049990614409684e-03 -2.888049990614409701e-01
-2.769233497788006846e-03 4.007827479087088918e+00 -2.769233497788006846e-03 -2.769233497788006759e-01
-2.640256552861064334e-03 4.007462677040951604e+00 -2.640256552861064334e-03 -2.640256552861064421e-01
-2.501626932487776948e-03 4.007070598456230037e+00 -2.501626932487776948e-03 -2.501626932487777122e-01
-2.353890529297300842e-03 4.006652792245667172e+00 -2.353890529297300842e-03 -2.353890529297300860e-01
-2.197629822061987048e-03 4.006210907250971509e+00 -2.197629822061987048e-03 -2.197629822061986926e-01
-2.033460004666629451e-03 4.005746689790367299e+00 -2.033460004666629451e-03 -2.033460004666629573e-01
-1.862028133484458893e-03 4.005261972106361590e+00 -1.862028133484458893e-03 -1.862028133484458781e-01
-1.684009662421320254e-03 4.004758668610445049e+00 -1.684009662421320254e-03 -1.684009662421320219e-01
-1.500106021957562036e-03 4.004238766764449231e+00 -1.500106021957562036e-03 -1.500106021957562097e-01
-1.311042216666443144e-03 4.003704319078387641e+00 -1.311042216666443144e-03 -1.311042216666443161e-01
-1.117563472983489417e-03 4.003157436178773843e+00 -1.117563472983489417e-03 -1.117563472983489348e-01
-9.204327712158718710e-04 4.002600277060584411e+00 -9.204327712158718710e-04 -9.204327712158719144e-02
-7.204276446247005619e-04 4.002035041661756054e+00 -7.204276446247005619e-04 -7.204276446247005750e-02
-5.183370982418319950e-04 4.001463961637868216e+00 -5.183370982418319950e-04 -5.183370982418319950e-02
-3.149586726163289556e-04 4.000889291576300799e+00 -3.149586726163289556e-04 -3.149586726163289274e-02
-1.110950853316836198e-04 4.000313300398591565e+00 -1.110950853316836198e-04 -1.110950853316836247e-02
9.244878842867100327e-05 3.999738262009436163e+00 9.244878842867100327e-05 9.244878842867100543e-03
2.948691680429580330e-04 3.999166446645231243e+00 2.948691680429580330e-04 2.948691680429580200e-02
4.953665663279654399e-04 3.998600111746491326e+00 4.953665663279654399e-04 4.953665663279654269e-02
6.931488920309953868e-04 3.998041493066716967e+00 6.931488920309953868e-04 6.931488920309954171e-02
8.874346562230534235e-04 3.997492795931113285e+00 8.874346562230534235e-04 8.874346562230533975e-02
1.077456014303798237e-03 3.996956186417619072e+00 1.077456014303798237e-03 1.077456014303798254e-01
1.262461825839762556e-03 3.996433782908948906e+00 1.262461825839762556e-03 1.262461825839762686e-01
1.441720634341655443e-03 3.995927647675120653e+00 1.441720634341655443e-03 1.441720634341655538e-01
1.614523545971489459e-03 3.995439778750271564e+00 1.614523545971489459e-03 1.614523545971489338e-01
1.780187063312903229e-03 3.994972102065222241e+00 1.780187063312903229e-03 1.780187063312903273e-01
1.938055785235209914e-03 3.994526463818848239e+00 1.938055785235209914e-03 1.938055785235209827e-01
2.087505019749615488e-03 3.994104623223649231e+00 2.087505019749615488e-03 2.087505019749615609e-01
2.227943274420859758e-03 3.993708245546327529e+00 2.227943274420859758e-03 2.227943274420859654e-01
2.358814610113816115e-03 3.993338895546902911e+00 2.358814610113816115e-03 2.358814610113816046e-01
2.479600866590604604e-03 3.992998031308074847e+00 2.479600866590604604e-03 2.479600866590604691e-01
2.589823729938171750e-03 3.992686998478310656e+00 2.589823729938171750e-03 2.589823729938171559e-01
2.689046645514578480e-03 3.992407024971505347e+00 2.689046645514578480e-03 2.689046645514578393e-01
2.776876565370876154e-03 3.992159216119239851e+00 2.776876565370876154e-03 2.776876565370876015e-01
2.852965517649018110e-03 3.991944550313998086e+00 2.852965517649018110e-03 2.852965517649018179e-01
2.917011999771770749e-03 3.991763875150558860e+00 2.917011999771770749e-03 2.917011999771770836e-01
2.968760638933456032e-03 3.991617898340082959e+00 2.968760638933456032e-03 2.968760638933455875e-01
3.008008284659182460e-03 3.991507204189114866e+00 3.008008284659182460e-03 3.008008284659182685e-01
3.034600386726265305e-03 3.991432232915716138e+00 3.034600386726265305e-03 3.034600386726265531e-01
3.048429471527563158e-03 3.991393274621155562e+00 3.048429471527563158e-03 3.048429471527563384e-01
3.049441561543599771e-03 3.991390486779196500e+00 3.049441561543599771e-03 3.049441561543599910e-01
3.037631958253789524e-03 3.991423878747871523e+00 3.037631958253789524e-03 3.037631958253789732e-01
3.013047062774134449e-03 3.991493319080849034e+00 3.013047062774134449e-03 3.013047062774134588e-01
2.975784512839466621e-03 3.991598535219953003e+00 2.975784512839466621e-03 2.975784512839466656e-01
2.925991236193678513e-03 3.991739110934057866e+00 2.925991236193678513e-03 2.925991236193678513e-01
2.863864599045275443e-03 3.991914493122806107e+00 2.863864599045275443e-03 2.863864599045275461e-01
2.789650366249107286e-03 3.992123989439051446e+00 2.789650366249107286e-03 2.789650366249107338e-01
2.703640568570904543e-03 3.992366767731006405e+00 2.703640568570904543e-03 2.703640568570904734e-01
2.606177529132632561e-03 3.992641876737252460e+00 2.606177529132632561e-03 2.606177529132632786e-01
2.497647872001489654e-03 3.992948234542012642e+00 2.497647872001489654e-03 2.497647872001489688e-01
2.378479688633447324e-03 3.993284627551842991e+00 2.378479688633447324e-03 2.378479688633447220e-01
2.249145175770014132e-03 3.993649731497522559e+00 2.249145175770014132e-03 2.249145175770014271e-01
2.110155775269710685e-03 3.994042104657645975e+00 2.110155775269710685e-03 2.110155775269710599e-01
1.962061088912813930e-03 3.994460198559472541e+00 1.962061088912813930e-03 1.962061088912814000e-01
1.805447297987418332e-03 3.994902364853562649e+00 1.805447297987418332e-03 1.805447297987418376e-01
1.640933467611652976e-03 3.995366857613090961e+00 1.640933467611652976e-03 1.640933467611652985e-01
1.469170366644208595e-03 3.995851845109968270e+00 1.469170366644208595e-03 1.469170366644208525e-01
1.290837121111662123e-03 3.996355413326526662e+00 1.290837121111662123e-03 1.290837121111662045e-01
1.106638622004556000e-03 3.996875575238191480e+00 1.106638622004556000e-03 1.106638622004555983e-01
