4.961587149999999724e-01 2.999999999999999889e-01 0.000000000000000000e+00
4.967936877283656849e-01 3.032992948312266401e-01 6.349726283657042281e-04
4.973688648821191771e-01 3.059765483753771886e-01 1.210149782119196438e-03
4.978700230076616995e-01 3.074598104935873377e-01 1.711307907661718808e-03
4.982661797161782036e-01 3.074688661049709837e-01 2.107464616178222894e-03
4.985326507855942224e-01 3.059972406378299037e-01 2.373935685594241729e-03
4.986523884799290429e-01 3.033130095628196465e-01 2.493673379929062239e-03
4.986170753766889785e-01 2.999141719274237006e-01 2.458360276688997814e-03
4.984279336792052928e-01 2.964424171918332296e-01 2.269218579205312114e-03
4.980960966784254151e-01 2.935653563844427549e-01 1.937381578425434459e-03
4.976423195691072054e-01 2.918462766312070467e-01 1.483604469107224766e-03
4.970958391942122412e-01 2.916283840858167054e-01 9.371240942122605055e-04
4.964923397062254717e-01 2.929617605683147996e-01 3.336246062254910605e-04
4.958711999824644834e-01 2.955926074435793471e-01 -2.875151175354972999e-04
4.952724027455940869e-01 2.990177276138580864e-01 -8.863123544058937320e-04
4.947335803849632341e-01 3.025892286007313969e-01 -1.425134715036746602e-03
4.942876026507840304e-01 3.056426551695093363e-01 -1.871112449215950324e-03
4.939608996651232431e-01 3.076201086047557487e-01 -2.197815434876737584e-03
4.937724606240933012e-01 3.081666420734865408e-01 -2.386254475906679495e-03
4.937332767756271168e-01 3.071878625667133211e-01 -2.425438324372863885e-03
4.938459809618067631e-01 3.048642191276852431e-01 -2.312734138193217603e-03
4.941045670587032590e-01 3.016214717898612618e-01 -2.054148041296721683e-03
4.944942728199075987e-01 2.980594916203858635e-01 -1.664442280092381932e-03
4.949918691281416372e-01 2.948462107998577886e-01 -1.166845971858343489e-03
4.955666263720577280e-01 2.925916106244328407e-01 -5.920887279422526461e-04
4.961821002984747597e-01 2.917255981095540074e-01 2.338519847477904534e-05
4.967986541583939153e-01 2.924080707160737203e-01 6.399390583939346122e-04
4.973764181109647242e-01 2.944947678374080224e-01 1.217703010964743537e-03
4.978782723267552446e-01 2.975685231107734752e-01 1.719557226755263901e-03
4.982724609488036749e-01 3.010274366208395280e-01 2.113745848803694205e-03
4.985345746834904390e-01 3.042069114637346861e-01 2.375859583490458338e-03
4.986488178032778551e-01 3.065069828974395505e-01 2.490102703277874419e-03
4.986086282542458448e-01 3.075002358106714295e-01 2.449913154245864089e-03
4.984167934674965106e-01 3.070044748844123483e-01 2.258078367496529903e-03
4.980851863522280376e-01 3.051127098234388546e-01 1.926471252228056930e-03
4.976341654985988461e-01 3.021781845251691467e-01 1.475450398598865398e-03
4.970915945267833091e-01 2.987552954737729971e-01 9.328794267833284692e-04
4.964913906196820603e-01 2.955016195856143835e-01 3.326755196820796456e-04
4.958715428545263371e-01 2.930540073345036522e-01 -2.871722454736436170e-04
4.952716434680410895e-01 2.919011551973291207e-01 -8.870716319588911603e-04
4.947301118178781265e-01 2.922811578916376107e-01 -1.428603282121854168e-03
4.942814074728227314e-01 2.941300667431301918e-01 -1.877307627177249305e-03
4.939535791593048786e-01 2.970952374902857684e-01 -2.205135940695102104e-03
4.937664551015030212e-01 3.006094947554652230e-01 -2.392259998496959472e-03
4.937306490790354108e-01 3.040062652114338682e-01 -2.428066020964569915e-03
4.938473703198948961e-01 3.066479892225945081e-01 -2.311344780105084595e-03
4.941088526001581882e-01 3.080418146042525063e-01 -2.049862499841792474e-03
4.944991353399337264e-01 3.079244144346687251e-01 -1.659579760066254295e-03
4.949949790813055195e-01 3.063063584415761098e-01 -1.163736018694461194e-03
4.955668563730045717e-01 3.034721980289394883e-01 -5.918587269954089791e-04
4.961801418908443062e-01 2.999355057808422154e-01 2.142679084432552727e-05
4.967967240754939673e-01 2.963516583754545186e-01 6.380089754939866076e-04
4.973772014458904822e-01 2.933981109762090478e-01 1.218486345890501532e-03
4.978836218223566257e-01 2.916418765784277167e-01 1.724906722356644995e-03
4.982824710192770290e-01 2.914223598383263170e-01 2.123755919277048321e-03
4.985474487531930676e-01 2.927786497403507271e-01 2.388733653193086948e-03
4.986615667534219365e-01 2.954408950990513039e-01 2.502851653421955813e-03
4.986182639399129868e-01 2.988881066354650562e-01 2.459548839913006102e-03
4.984214809966367454e-01 3.024566381232894896e-01 2.262765896636764751e-03
4.980848683098125229e-01 3.054720089527943605e-01 1.926153209812542233e-03
4.976304292428633813e-01 3.073751730789015535e-01 1.471714142863400632e-03
4.970868890169707344e-01 3.078209519144917694e-01 9.281739169707536874e-04
4.964879604347379183e-01 3.067357984032817453e-01 3.292453347379376005e-04
4.958705328242985488e-01 3.043295682456986784e-01 -2.881822757014318448e-04
4.952727228376706536e-01 3.010603662655805257e-01 -8.859922623293270405e-04
4.947317360879806558e-01 2.975551925191581848e-01 -1.426979012019324866e-03
4.942815812896488858e-01 2.944951931373261944e-01 -1.877133810351094834e-03
4.939507964046813138e-01 2.924833963981385843e-01 -2.207918695318666913e-03
4.937604257775567995e-01 2.919214448753982838e-01 -2.398289322443181160e-03
4.937224945792225150e-01 2.929244577460497490e-01 -2.436220520777465648e-03
4.938391696080361992e-01 2.952961146901983969e-01 -2.319545491963781458e-03
4.941027010568471156e-01 2.985705957619982365e-01 -2.056014043152865067e-03
4.944961288290137258e-01 3.021099885796987294e-01 -1.662586270986254888e-03
4.949946237990386355e-01 3.052323901172938614e-01 -1.164091300961345166e-03
4.955672467482643562e-01 3.073417608351563524e-01 -5.914683517356245090e-04
4.961788859520420703e-01 3.080352412667926587e-01 2.017085204208957094e-05
4.967922001677130828e-01 3.071725955129174790e-01 6.334850677131020902e-04
4.973695201278587330e-01 3.049005576386242256e-01 1.210805027858752325e-03
4.978747778291124915e-01 3.016298841159310018e-01 1.716062729112510787e-03
4.982755629707303902e-01 2.979664559369119003e-01 2.116847870730409475e-03
4.985453239813519843e-01 2.946030819995916761e-01 2.386608881352003664e-03
4.986654937401754362e-01 2.921877828511894593e-01 2.506778640175455486e-03
4.986273744409945308e-01 2.911924921557371149e-01 2.468659340994550089e-03
4.984331121580353186e-01 2.918140682241166517e-01 2.274397058035337871e-03
4.980957375995630487e-01 2.939315612874335293e-01 1.937022499563068045e-03
4.976380314156511053e-01 2.971325354170213373e-01 1.479316315651124647e-03
4.970904649229653249e-01 3.008008765628549241e-01 9.317498229653442543e-04
4.964886120448525619e-01 3.042428710763195321e-01 3.298969448525812531e-04
4.958704907749911239e-01 3.068212818265649289e-01 -2.882243250088567521e-04
4.952741738872639132e-01 3.080703884715094709e-01 -8.845412127360674504e-04
4.947357882624524028e-01 3.077743550710820286e-01 -1.422926837547577872e-03
4.942878228285434439e-01 3.060008704044646088e-01 -1.870892271456536804e-03
4.939575847427639110e-01 3.030882135240948183e-01 -2.201130357236069646e-03
4.937657033422156450e-01 2.995873736898354567e-01 -2.393011757784335725e-03
4.937247276293649234e-01 2.961648268980955345e-01 -2.433987470635057271e-03
4.938380054286243270e-01 2.934784880417792285e-01 -2.320709671375653649e-03
4.940990935417874375e-01 2.920482381354587709e-01 -2.059621558212543224e-03
4.944919016862133199e-01 2.921488137926412376e-01 -1.666813413786660814e-03
4.949916487246246444e-01 2.937516318077238453e-01 -1.167066375375336307e-03
4.955665637718233429e-01 2.965313273566100305e-01 -5.921513281766377368e-04
4.961801418927098140e-01 2.999355058103358451e-01 2.142679270983327555e-05
4.967936877032468335e-01 3.032992950716508207e-01 6.349726032468527848e-04
4.973688648821190661e-01 3.059765483753771886e-01 1.210149782119085415e-03
4.978700230076617550e-01 3.074598104935873932e-01 1.711307907661774319e-03
4.982661797161782591e-01 3.074688661049710392e-01 2.107464616178278405e-03
4.985326507855942779e-01 3.059972406378297927e-01 2.373935685594297240e-03
4.986523884799290429e-01 3.033130095628195355e-01 2.493673379929062239e-03
4.986170753766889230e-01 2.999141719274236451e-01 2.458360276688942303e-03
4.984279336792053483e-01 2.964424171918330631e-01 2.269218579205367625e-03
4.980960966784254151e-01 2.935653563844428104e-01 1.937381578425434459e-03
4.976423195691071499e-01 2.918462766312070467e-01 1.483604469107169255e-03
4.970958391942121302e-01 2.916283840858167054e-01 9.371240942121494832e-04
4.964923397062254717e-01 2.929617605683149106e-01 3.336246062254910605e-04
4.958711999824644279e-01 2.955926074435795692e-01 -2.875151175355528110e-04
4.952724027455940869e-01 2.990177276138583640e-01 -8.863123544058937320e-04
4.947335803849631786e-01 3.025892286007317300e-01 -1.425134715036802113e-03
4.942876026507840304e-01 3.056426551695096139e-01 -1.871112449215950324e-03
4.939608996651231876e-01 3.076201086047557487e-01 -2.197815434876793095e-03
4.937724606240933012e-01 3.081666420734865963e-01 -2.386254475906679495e-03
4.937332767756271168e-01 3.071878625667131546e-01 -2.425438324372863885e-03
4.938459809618067631e-01 3.048642191276850766e-01 -2.312734138193217603e-03
4.941045670587032590e-01 3.016214717898609843e-01 -2.054148041296721683e-03
4.944942728199076543e-01 2.980594916203855305e-01 -1.664442280092326421e-03
4.949918691281416372e-01 2.948462107998576220e-01 -1.166845971858343489e-03
4.955666263720577280e-01 2.925916106244327297e-01 -5.920887279422526461e-04
4.961821002984748152e-01 2.917255981095540629e-01 2.338519847483455649e-05
4.967986541583939153e-01 2.924080707160738313e-01 6.399390583939346122e-04
4.973764181109647242e-01 2.944947678374082445e-01 1.217703010964743537e-03
4.978782723267553001e-01 2.975685231107736972e-01 1.719557226755319412e-03
4.982724609488037304e-01 3.010274366208396946e-01 2.113745848803749716e-03
4.985345746834904390e-01 3.042069114637349636e-01 2.375859583490458338e-03
4.986488178032779106e-01 3.065069828974396060e-01 2.490102703277929930e-03
4.986086282542457893e-01 3.075002358106714295e-01 2.449913154245808578e-03
4.984167934674965661e-01 3.070044748844122373e-01 2.258078367496585415e-03
4.980851863522280376e-01 3.051127098234385771e-01 1.926471252228056930e-03
4.976341654985987906e-01 3.021781845251688137e-01 1.475450398598809887e-03
4.970915945267832536e-01 2.987552954737727751e-01 9.328794267832729581e-04
4.964913906196820603e-01 2.955016195856141059e-01 3.326755196820796456e-04
4.958715428545262816e-01 2.930540073345035412e-01 -2.871722454736991281e-04
4.952716434680409785e-01 2.919011551973290652e-01 -8.870716319590021826e-04
4.947301118178780710e-01 2.922811578916377218e-01 -1.428603282121909679e-03
4.942814074728226759e-01 2.941300667431303584e-01 -1.877307627177304816e-03
4.939535791593048231e-01 2.970952374902860460e-01 -2.205135940695157615e-03
4.937664551015029102e-01 3.006094947554654451e-01 -2.392259998497070494e-03
4.937306490790354663e-01 3.040062652114338682e-01 -2.428066020964514404e-03
4.938473703198948406e-01 3.066479892225946191e-01 -2.311344780105140106e-03
4.941088526001581882e-01 3.080418146042527283e-01 -2.049862499841792474e-03
4.944991353399336709e-01 3.079244144346686696e-01 -1.659579760066309806e-03
4.949949790813055195e-01 3.063063584415758878e-01 -1.163736018694461194e-03
4.955668563730046272e-01 3.034721980289392662e-01 -5.918587269953534680e-04
4.961801418908443617e-01 2.999355057808418823e-01 2.142679084438103843e-05
4.967967240754939673e-01 2.963516583754542411e-01 6.380089754939866076e-04
4.973772014458905377e-01 2.933981109762089368e-01 1.218486345890557043e-03
4.978836218223566812e-01 2.916418765784276612e-01 1.724906722356700506e-03
4.982824710192770290e-01 2.914223598383264835e-01 2.123755919277048321e-03
4.985474487531931231e-01 2.927786497403508936e-01 2.388733653193142459e-03
4.986615667534219365e-01 2.954408950990515814e-01 2.502851653421955813e-03
4.986182639399130423e-01 2.988881066354653893e-01 2.459548839913061613e-03
4.984214809966366899e-01 3.024566381232900447e-01 2.262765896636709240e-03
4.980848683098124674e-01 3.054720089527944160e-01 1.926153209812486722e-03
4.976304292428633813e-01 3.073751730789017200e-01 1.471714142863400632e-03
4.970868890169707344e-01 3.078209519144917694e-01 9.281739169707536874e-04
4.964879604347378628e-01 3.067357984032816343e-01 3.292453347378820894e-04
4.958705328242984378e-01 3.043295682456985118e-01 -2.881822757015428671e-04
4.952727228376705981e-01 3.010603662655801371e-01 -8.859922623293825517e-04
4.947317360879806003e-01 2.975551925191578517e-01 -1.426979012019380377e-03
4.942815812896488303e-01 2.944951931373258613e-01 -1.877133810351150345e-03
4.939507964046813693e-01 2.924833963981384732e-01 -2.207918695318611402e-03
4.937604257775567995e-01 2.919214448753982838e-01 -2.398289322443181160e-03
4.937224945792225150e-01 2.929244577460499155e-01 -2.436220520777465648e-03
4.938391696080361992e-01 2.952961146901985079e-01 -2.319545491963781458e-03
4.941027010568471156e-01 2.985705957619986806e-01 -2.056014043152865067e-03
4.944961288290137813e-01 3.021099885796990070e-01 -1.662586270986199377e-03
4.949946237990386910e-01 3.052323901172941389e-01 -1.164091300961289654e-03
4.955672467482644672e-01 3.073417608351565189e-01 -5.914683517355134867e-04
4.961788859520421258e-01 3.080352412667927142e-01 2.017085204214508209e-05
4.967922001677131383e-01 3.071725955129173680e-01 6.334850677131576013e-04
4.973695201278587885e-01 3.049005576386239480e-01 1.210805027858807836e-03
4.978747778291124915e-01 3.016298841159306132e-01 1.716062729112510787e-03
4.982755629707304457e-01 2.979664559369116228e-01 2.116847870730464987e-03
4.985453239813520399e-01 2.946030819995913985e-01 2.386608881352059175e-03
4.986654937401753807e-01 2.921877828511894037e-01 2.506778640175399975e-03
4.986273744409945863e-01 2.911924921557370594e-01 2.468659340994605600e-03
4.984331121580353186e-01 2.918140682241167072e-01 2.274397058035337871e-03
4.980957375995630487e-01 2.939315612874338068e-01 1.937022499563068045e-03
4.976380314156510498e-01 2.971325354170215594e-01 1.479316315651069136e-03
4.970904649229653249e-01 3.008008765628551462e-01 9.317498229653442543e-04
4.964886120448525619e-01 3.042428710763198652e-01 3.298969448525812531e-04
4.958704907749910684e-01 3.068212818265650954e-01 -2.882243250089122633e-04
4.952741738872639132e-01 3.080703884715094154e-01 -8.845412127360674504e-04
4.947357882624524028e-01 3.077743550710819176e-01 -1.422926837547577872e-03
4.942878228285433329e-01 3.060008704044644423e-01 -1.870892271456647826e-03
4.939575847427638555e-01 3.030882135240945408e-01 -2.201130357236125157e-03
4.937657033422155339e-01 2.995873736898351236e-01 -2.393011757784446747e-03
4.937247276293648679e-01 2.961648268980952570e-01 -2.433987470635112782e-03
4.938380054286243825e-01 2.934784880417790065e-01 -2.320709671375598138e-03
4.940990935417875485e-01 2.920482381354586043e-01 -2.059621558212432202e-03
4.944919016862133754e-01 2.921488137926414042e-01 -1.666813413786605302e-03
4.949916487246246999e-01 2.937516318077240673e-01 -1.167066375375280796e-03
4.955665637718233429e-01 2.965313273566102525e-01 -5.921513281766377368e-04
4.961801418927099250e-01 2.999355058103360672e-01 2.142679270994429785e-05
