-9.044889340160723951e-06 -1.576382358114019944e+01 5.084842159698627073e-01
-1.793405499746112227e-05 -3.020859065338494176e+01 5.144170875944445998e-01
-2.598913124909594350e-05 -4.189506034077821539e+01 5.195568367636230755e-01
-3.289833694478893321e-05 -4.961100187998600575e+01 5.236118533835578681e-01
-3.836785254513178138e-05 -5.253258253021921576e+01 5.263555548730649569e-01
-4.211696432937063684e-05 -5.031969007954703699e+01 5.276327187935153651e-01
-4.388327580004802839e-05 -4.316060623655825879e+01 5.273642040786284957e-01
-4.344087938714696797e-05 -3.176025588579545911e+01 5.255512471792246343e-01
-4.063017332239819083e-05 -1.727181824682791245e+01 5.222793835120275174e-01
-3.539536556280798661e-05 -1.177235911553556669e+00 5.177207634804492642e-01
-2.782192860147206359e-05 1.487176399809452931e+01 5.121325857234030332e-01
-1.816499934913727758e-05 2.923453081579300772e+01 5.058489795943436063e-01
-6.860399026757264457e-06 4.046196754315546684e+01 4.992642764745857664e-01
5.487205727042267662e-06 4.745282073363374309e+01 4.928072756383973796e-01
1.813974086227594675e-05 4.956501993487989921e+01 4.869084459557727063e-01
3.028011270077271333e-05 4.666895412013138156e+01 4.819642094688667000e-01
4.107739733317696668e-05 3.913992263047724407e+01 4.783036359910985968e-01
4.975315460614866003e-05 2.779687443643178213e+01 4.761625188588221591e-01
5.564089588819472084e-05 1.380111909193259478e+01 4.756680457067298251e-01
5.823414540769660371e-05 -1.469112386745724086e+00 4.768348444403509578e-01
5.722146671287008541e-05 -1.655363603662914329e+01 4.795709641117704147e-01
5.250964387272742114e-05 -3.004296649455374890e+01 4.836909805253375438e-01
4.423617065832394029e-05 -4.069945257650489623e+01 4.889330864469680904e-01
3.277211727005843446e-05 -4.755957449362377787e+01 4.949775451039252760e-01
1.871465611021291017e-05 -5.001141853341222543e+01 5.014648780626593805e-01
2.867700687112087169e-06 -4.784269467598940651e+01 5.080132439110238707e-01
-1.379191599173005952e-05 -4.125640057216319434e+01 5.142353494077505083e-01
-3.016447772538299291e-05 -3.085337358124592200e+01 5.197557320832076888e-01
-4.509414794233507142e-05 -1.758322007989062286e+01 5.242292654229517845e-01
-5.745092131222451643e-05 -2.667073380969561036e+00 5.273612484418247481e-01
-6.622251386092544009e-05 1.250295603127234756e+01 5.289285246205875923e-01
-7.060859207863348880e-05 2.648185141285652833e+01 5.287999143689676718e-01
-7.010633272445297931e-05 3.790061467449562116e+01 5.269531416191090001e-01
-6.457530254045202526e-05 4.559788140574974591e+01 5.234847800455819655e-01
-5.427066208423972176e-05 4.874355151844664391e+01 5.186099319141440622e-01
-3.983757051756005231e-05 4.694070525473959066e+01 5.126496223424014120e-01
-2.226479046255819743e-05 4.029007487859005465e+01 5.060061355070294420e-01
-2.803404641281876389e-06 2.940257346765545066e+01 4.991291652043651772e-01
1.713880010607222426e-05 1.535124135810463919e+01 4.924777830668278233e-01
3.611326247283157346e-05 -4.361975383124294114e-01 4.864839827479632284e-01
5.274370051527350081e-05 -1.633198613948319533e+01 4.815226194720377828e-01
6.582633796877522905e-05 -3.068943288046590823e+01 4.778903708173278253e-01
7.441124035900532571e-05 -4.202594600502272471e+01 4.757938413198395944e-01
7.786302741125472669e-05 -4.918475407206604189e+01 4.753450403812166658e-01
7.589990128708489468e-05 -5.145680420312689307e+01 4.765616620299059081e-01
6.861219300028913062e-05 -4.865056964828714570e+01 4.793698640120201970e-01
5.646041973620927505e-05 -4.110388595440853265e+01 4.836082474587665714e-01
4.025208909885829640e-05 -2.963803706229814949e+01 4.890330479078915937e-01
2.109683191828587968e-05 -1.546025593584466762e+01 4.953257495999858206e-01
3.387579284248688133e-07 -2.663502250303087515e-02 5.021050514083228444e-01
-2.053303433358501484e-05 1.511740652083541470e+01 5.089450391937040408e-01
-3.999271939976877275e-05 2.849875360371430943e+01 5.154004216614607170e-01
-5.659770250449375244e-05 3.886021390552582488e+01 5.210379296624337853e-01
-6.910967932627403104e-05 4.527040219237866836e+01 5.254709677354709729e-01
-7.660313714251376063e-05 4.719179179515547418e+01 5.283930475922844483e-01
-7.854788419774746836e-05 4.450711831495105031e+01 5.296050375491990758e-01
-7.485399693180834241e-05 3.751020457368827010e+01 5.290320607613581139e-01
-6.587392273157894110e-05 2.686897414961823571e+01 5.267277256468821944e-01
-5.236145080599887650e-05 1.356649139660678927e+01 5.228656972473759712e-01
-3.539534737291394437e-05 -1.177241610329940347e+00 5.177207616098595810e-01
-1.627800884545339434e-05 -1.600158697981827416e+01 5.116429764107669476e-01
3.577308007675155529e-06 -2.951727424080858952e+01 5.050289733270353354e-01
2.275863880973548098e-05 -4.042822150632194678e+01 4.982939998902971013e-01
3.995688530851368133e-05 -4.765340076435519023e+01 4.918471286307503632e-01
5.405048433084472985e-05 -5.043647515077626053e+01 4.860706339215928873e-01
6.416982797446953255e-05 -4.843070077070105128e+01 4.813032635001642245e-01
6.974097051280333452e-05 -4.174844343904129573e+01 4.778263237198580593e-01
7.050940622442243913e-05 -3.096786963526360026e+01 4.758513089448035416e-01
6.654571917415232616e-05 -1.709320876671756650e+01 4.755082427817270974e-01
5.823415995961183207e-05 -1.469112077059015586e+00 4.768348439090014934e-01
4.624477151758906623e-05 1.434589681376248294e+01 4.797678400682946487e-01
3.148835094640303571e-05 2.873692416179432740e+01 4.841388564272120498e-01
1.505411455802446070e-05 4.020593799348814912e+01 4.896778286306786021e-01
-1.869377001913099348e-06 4.754079832256834948e+01 4.960264027857900215e-01
-1.808613160656680652e-05 4.995757751227530008e+01 5.027621181329221534e-01
-3.248954818011269883e-05 4.719496893938271853e+01 5.094316474700318897e-01
-4.415315561991277820e-05 3.954569674117355760e+01 5.155888344443984028e-01
-5.240271276163494159e-05 2.781993856925809894e+01 5.208317568929489161e-01
-5.685969882428238255e-05 1.324723796052269087e+01 5.248332576664940241e-01
-5.745087038052121037e-05 -2.667087221737817426e+00 5.273612435971650747e-01
-5.438552398913282677e-05 -1.830980282785533575e+01 5.282877457169361524e-01
-4.810711471485129814e-05 -3.213014756395141802e+01 5.275881877976099643e-01
-3.922955148146311621e-05 -4.279400056310095835e+01 5.253337575961618544e-01
-2.846927418847940738e-05 -4.930769396117239722e+01 5.216800184069086965e-01
-1.658163637572706016e-05 -5.110217762200774416e+01 5.168542084162871530e-01
-4.308407824912637044e-06 -4.807269836042367217e+01 5.111425154491722189e-01
7.661121345546668330e-06 -4.057322838083690897e+01 5.048774183871358456e-01
1.871594577370021392e-05 -2.936875674840691275e+01 4.984242714337996372e-01
2.833850704023937992e-05 -1.555224726448561512e+01 4.921658797415546793e-01
3.611326974878918764e-05 -4.361975154375713482e-01 4.864839828296314561e-01
4.173243724536244108e-05 1.456936267908354488e+01 4.817373175748861924e-01
4.500116847996982823e-05 2.808056377972267725e+01 4.782371183033254924e-01
4.584269846179169893e-05 3.885518539589557463e+01 4.762222207655331108e-01
4.430129775493801678e-05 4.589329149479163306e+01 4.758369748805784671e-01
4.053985686052012503e-05 4.851936310523782225e+01 4.771155683257932156e-01
3.482906686767687690e-05 4.644349126143593054e+01 4.799758916253967778e-01
2.752696127974994336e-05 3.979809314120268482e+01 4.842247309751611661e-01
1.905014323989434035e-05 2.914433576506723611e+01 4.895741102707953374e-01
9.841228349234292839e-06 1.544133502700401017e+01 4.956665068687909903e-01
3.387579284248688133e-07 -2.663498400953375617e-02 5.021050513928171366e-01
